-90.000000 -75.375000 -109.000000
-90.000000 -100.500000 -81.750000
-90.000000 -100.500000 -109.000000
-90.000000 -75.375000 -81.750000
-90.000000 -100.500000 -54.500000
-90.000000 -50.250000 -109.000000
-90.000000 -75.375000 -54.500000
-90.000000 -100.500000 -27.250000
-90.000000 -75.375000 -27.250000
-90.000000 -100.500000 0.000000
-90.000000 -50.250000 -54.500000
-90.000000 -50.250000 -81.750000
-90.000000 -25.125000 -81.750000
-90.000000 -25.125000 -109.000000
-90.000000 0.000000 -109.000000
-90.000000 -75.375000 0.000000
-90.000000 -100.500000 27.250000
-90.000000 -75.375000 27.250000
-90.000000 -100.500000 54.500000
-90.000000 -50.250000 0.000000
-90.000000 -75.375000 54.500000
-90.000000 -100.500000 81.750000
-90.000000 -75.375000 81.750000
-90.000000 -100.500000 109.000000
-90.000000 -50.250000 54.500000
-90.000000 -50.250000 27.250000
-90.000000 -25.125000 27.250000
-90.000000 -25.125000 0.000000
-90.000000 0.000000 0.000000
-90.000000 0.000000 -27.250000
-90.000000 25.125000 -27.250000
-90.000000 25.125000 -54.500000
-90.000000 50.250000 -54.500000
-90.000000 0.000000 -54.500000
-90.000000 50.250000 -81.750000
-90.000000 75.375000 -81.750000
-90.000000 75.375000 -109.000000
-90.000000 100.500000 -109.000000
-90.000000 50.250000 -109.000000
-90.000000 25.125000 -81.750000
-90.000000 25.125000 -109.000000
-90.000000 0.000000 -81.750000
-90.000000 -50.250000 -27.250000
-90.000000 -25.125000 -27.250000
-90.000000 -25.125000 -54.500000
-90.000000 75.375000 109.000000
-90.000000 100.500000 81.750000
-90.000000 100.500000 109.000000
-90.000000 75.375000 81.750000
-90.000000 100.500000 54.500000
-90.000000 50.250000 109.000000
-90.000000 75.375000 54.500000
-90.000000 100.500000 27.250000
-90.000000 75.375000 27.250000
-90.000000 100.500000 0.000000
-90.000000 50.250000 54.500000
-90.000000 50.250000 81.750000
-90.000000 25.125000 81.750000
-90.000000 25.125000 109.000000
-90.000000 0.000000 109.000000
-90.000000 75.375000 0.000000
-90.000000 100.500000 -27.250000
-90.000000 75.375000 -27.250000
-90.000000 100.500000 -54.500000
-90.000000 50.250000 0.000000
-90.000000 75.375000 -54.500000
-90.000000 100.500000 -81.750000
-90.000000 50.250000 -27.250000
-90.000000 25.125000 0.000000
-90.000000 0.000000 27.250000
-90.000000 -25.125000 54.500000
-90.000000 0.000000 54.500000
-90.000000 -50.250000 81.750000
-90.000000 -75.375000 109.000000
-90.000000 -50.250000 109.000000
-90.000000 -25.125000 81.750000
-90.000000 -25.125000 109.000000
-90.000000 0.000000 81.750000
-90.000000 50.250000 27.250000
-90.000000 25.125000 27.250000
-90.000000 25.125000 54.500000
90.000000 -100.500000 -81.750000
90.000000 -75.375000 -109.000000
90.000000 -100.500000 -109.000000
90.000000 -75.375000 -81.750000
90.000000 -50.250000 -109.000000
90.000000 -100.500000 -54.500000
90.000000 -50.250000 -81.750000
90.000000 -25.125000 -109.000000
90.000000 -25.125000 -81.750000
90.000000 0.000000 -109.000000
90.000000 -50.250000 -54.500000
90.000000 -75.375000 -54.500000
90.000000 -75.375000 -27.250000
90.000000 -100.500000 -27.250000
90.000000 -100.500000 0.000000
90.000000 0.000000 -81.750000
90.000000 25.125000 -109.000000
90.000000 25.125000 -81.750000
90.000000 50.250000 -109.000000
90.000000 0.000000 -54.500000
90.000000 50.250000 -81.750000
90.000000 75.375000 -109.000000
90.000000 75.375000 -81.750000
90.000000 100.500000 -109.000000
90.000000 50.250000 -54.500000
90.000000 25.125000 -54.500000
90.000000 25.125000 -27.250000
90.000000 0.000000 -27.250000
90.000000 0.000000 0.000000
90.000000 -25.125000 0.000000
90.000000 -25.125000 27.250000
90.000000 -50.250000 27.250000
90.000000 -50.250000 54.500000
90.000000 -50.250000 0.000000
90.000000 -75.375000 54.500000
90.000000 -75.375000 81.750000
90.000000 -100.500000 81.750000
90.000000 -100.500000 109.000000
90.000000 -100.500000 54.500000
90.000000 -75.375000 27.250000
90.000000 -100.500000 27.250000
90.000000 -75.375000 0.000000
90.000000 -25.125000 -54.500000
90.000000 -25.125000 -27.250000
90.000000 -50.250000 -27.250000
90.000000 100.500000 81.750000
90.000000 75.375000 109.000000
90.000000 100.500000 109.000000
90.000000 75.375000 81.750000
90.000000 50.250000 109.000000
90.000000 100.500000 54.500000
90.000000 50.250000 81.750000
90.000000 25.125000 109.000000
90.000000 25.125000 81.750000
90.000000 0.000000 109.000000
90.000000 50.250000 54.500000
90.000000 75.375000 54.500000
90.000000 75.375000 27.250000
90.000000 100.500000 27.250000
90.000000 100.500000 0.000000
90.000000 0.000000 81.750000
90.000000 -25.125000 109.000000
90.000000 -25.125000 81.750000
90.000000 -50.250000 109.000000
90.000000 0.000000 54.500000
90.000000 -50.250000 81.750000
90.000000 -75.375000 109.000000
90.000000 -25.125000 54.500000
90.000000 0.000000 27.250000
90.000000 25.125000 0.000000
90.000000 50.250000 -27.250000
90.000000 50.250000 0.000000
90.000000 75.375000 -54.500000
90.000000 100.500000 -81.750000
90.000000 100.500000 -54.500000
90.000000 75.375000 -27.250000
90.000000 100.500000 -27.250000
90.000000 75.375000 0.000000
90.000000 25.125000 54.500000
90.000000 25.125000 27.250000
90.000000 50.250000 27.250000
-67.500000 -100.500000 -109.000000
-67.500000 -100.500000 -81.750000
-45.000000 -100.500000 -109.000000
-45.000000 -100.500000 -81.750000
-22.500000 -100.500000 -109.000000
-22.500000 -100.500000 -81.750000
0.000000 -100.500000 -109.000000
-45.000000 -100.500000 -54.500000
-67.500000 -100.500000 -54.500000
-67.500000 -100.500000 -27.250000
0.000000 -100.500000 -81.750000
22.500000 -100.500000 -109.000000
22.500000 -100.500000 -81.750000
45.000000 -100.500000 -109.000000
0.000000 -100.500000 -54.500000
45.000000 -100.500000 -81.750000
67.500000 -100.500000 -109.000000
67.500000 -100.500000 -81.750000
45.000000 -100.500000 -54.500000
22.500000 -100.500000 -54.500000
22.500000 -100.500000 -27.250000
0.000000 -100.500000 -27.250000
0.000000 -100.500000 0.000000
-22.500000 -100.500000 0.000000
-22.500000 -100.500000 27.250000
-45.000000 -100.500000 27.250000
-45.000000 -100.500000 54.500000
-45.000000 -100.500000 0.000000
-67.500000 -100.500000 54.500000
-67.500000 -100.500000 81.750000
-67.500000 -100.500000 27.250000
-67.500000 -100.500000 0.000000
-22.500000 -100.500000 -54.500000
-22.500000 -100.500000 -27.250000
-45.000000 -100.500000 -27.250000
67.500000 -100.500000 109.000000
67.500000 -100.500000 81.750000
45.000000 -100.500000 109.000000
45.000000 -100.500000 81.750000
22.500000 -100.500000 109.000000
22.500000 -100.500000 81.750000
0.000000 -100.500000 109.000000
45.000000 -100.500000 54.500000
67.500000 -100.500000 54.500000
67.500000 -100.500000 27.250000
0.000000 -100.500000 81.750000
-22.500000 -100.500000 109.000000
-22.500000 -100.500000 81.750000
-45.000000 -100.500000 109.000000
0.000000 -100.500000 54.500000
-45.000000 -100.500000 81.750000
-67.500000 -100.500000 109.000000
-22.500000 -100.500000 54.500000
0.000000 -100.500000 27.250000
22.500000 -100.500000 0.000000
45.000000 -100.500000 -27.250000
45.000000 -100.500000 0.000000
67.500000 -100.500000 -54.500000
67.500000 -100.500000 -27.250000
67.500000 -100.500000 0.000000
22.500000 -100.500000 54.500000
22.500000 -100.500000 27.250000
45.000000 -100.500000 27.250000
-67.500000 100.500000 -109.000000
-67.500000 100.500000 -81.750000
-45.000000 100.500000 -109.000000
-67.500000 100.500000 -54.500000
-67.500000 100.500000 -27.250000
-45.000000 100.500000 -54.500000
-45.000000 100.500000 -81.750000
-22.500000 100.500000 -81.750000
-22.500000 100.500000 -109.000000
0.000000 100.500000 -109.000000
-67.500000 100.500000 0.000000
-67.500000 100.500000 27.250000
-45.000000 100.500000 0.000000
-67.500000 100.500000 54.500000
-67.500000 100.500000 81.750000
-45.000000 100.500000 54.500000
-45.000000 100.500000 27.250000
-22.500000 100.500000 27.250000
-22.500000 100.500000 0.000000
0.000000 100.500000 0.000000
0.000000 100.500000 -27.250000
22.500000 100.500000 -27.250000
22.500000 100.500000 -54.500000
45.000000 100.500000 -54.500000
0.000000 100.500000 -54.500000
45.000000 100.500000 -81.750000
67.500000 100.500000 -81.750000
67.500000 100.500000 -109.000000
45.000000 100.500000 -109.000000
22.500000 100.500000 -81.750000
22.500000 100.500000 -109.000000
0.000000 100.500000 -81.750000
-45.000000 100.500000 -27.250000
-22.500000 100.500000 -27.250000
-22.500000 100.500000 -54.500000
67.500000 100.500000 109.000000
67.500000 100.500000 81.750000
45.000000 100.500000 109.000000
67.500000 100.500000 54.500000
67.500000 100.500000 27.250000
45.000000 100.500000 54.500000
45.000000 100.500000 81.750000
22.500000 100.500000 81.750000
22.500000 100.500000 109.000000
0.000000 100.500000 109.000000
67.500000 100.500000 0.000000
67.500000 100.500000 -27.250000
45.000000 100.500000 0.000000
67.500000 100.500000 -54.500000
45.000000 100.500000 -27.250000
22.500000 100.500000 0.000000
0.000000 100.500000 27.250000
-22.500000 100.500000 54.500000
0.000000 100.500000 54.500000
-45.000000 100.500000 81.750000
-67.500000 100.500000 109.000000
-45.000000 100.500000 109.000000
-22.500000 100.500000 81.750000
-22.500000 100.500000 109.000000
0.000000 100.500000 81.750000
45.000000 100.500000 27.250000
22.500000 100.500000 27.250000
22.500000 100.500000 54.500000
-67.500000 -75.375000 -109.000000
-67.500000 -50.250000 -109.000000
-67.500000 -25.125000 -109.000000
-45.000000 -50.250000 -109.000000
-45.000000 -75.375000 -109.000000
-22.500000 -75.375000 -109.000000
-67.500000 0.000000 -109.000000
-67.500000 25.125000 -109.000000
-45.000000 0.000000 -109.000000
-67.500000 50.250000 -109.000000
-67.500000 75.375000 -109.000000
-45.000000 50.250000 -109.000000
-45.000000 25.125000 -109.000000
-22.500000 25.125000 -109.000000
-22.500000 0.000000 -109.000000
0.000000 0.000000 -109.000000
0.000000 -25.125000 -109.000000
22.500000 -25.125000 -109.000000
22.500000 -50.250000 -109.000000
45.000000 -50.250000 -109.000000
0.000000 -50.250000 -109.000000
45.000000 -75.375000 -109.000000
67.500000 -75.375000 -109.000000
22.500000 -75.375000 -109.000000
0.000000 -75.375000 -109.000000
-45.000000 -25.125000 -109.000000
-22.500000 -25.125000 -109.000000
-22.500000 -50.250000 -109.000000
67.500000 75.375000 -109.000000
67.500000 50.250000 -109.000000
67.500000 25.125000 -109.000000
45.000000 50.250000 -109.000000
45.000000 75.375000 -109.000000
22.500000 75.375000 -109.000000
67.500000 0.000000 -109.000000
67.500000 -25.125000 -109.000000
45.000000 0.000000 -109.000000
67.500000 -50.250000 -109.000000
45.000000 -25.125000 -109.000000
22.500000 0.000000 -109.000000
0.000000 25.125000 -109.000000
-22.500000 50.250000 -109.000000
0.000000 50.250000 -109.000000
-45.000000 75.375000 -109.000000
-22.500000 75.375000 -109.000000
0.000000 75.375000 -109.000000
45.000000 25.125000 -109.000000
22.500000 25.125000 -109.000000
22.500000 50.250000 -109.000000
-67.500000 -75.375000 109.000000
-45.000000 -75.375000 109.000000
-22.500000 -75.375000 109.000000
-45.000000 -50.250000 109.000000
-67.500000 -50.250000 109.000000
-67.500000 -25.125000 109.000000
0.000000 -75.375000 109.000000
22.500000 -75.375000 109.000000
0.000000 -50.250000 109.000000
45.000000 -75.375000 109.000000
67.500000 -75.375000 109.000000
45.000000 -50.250000 109.000000
22.500000 -50.250000 109.000000
22.500000 -25.125000 109.000000
0.000000 -25.125000 109.000000
0.000000 0.000000 109.000000
-22.500000 0.000000 109.000000
-22.500000 25.125000 109.000000
-45.000000 25.125000 109.000000
-45.000000 50.250000 109.000000
-45.000000 0.000000 109.000000
-67.500000 50.250000 109.000000
-67.500000 75.375000 109.000000
-67.500000 25.125000 109.000000
-67.500000 0.000000 109.000000
-22.500000 -50.250000 109.000000
-22.500000 -25.125000 109.000000
-45.000000 -25.125000 109.000000
67.500000 75.375000 109.000000
45.000000 75.375000 109.000000
22.500000 75.375000 109.000000
45.000000 50.250000 109.000000
67.500000 50.250000 109.000000
67.500000 25.125000 109.000000
0.000000 75.375000 109.000000
-22.500000 75.375000 109.000000
0.000000 50.250000 109.000000
-45.000000 75.375000 109.000000
-22.500000 50.250000 109.000000
0.000000 25.125000 109.000000
22.500000 0.000000 109.000000
45.000000 -25.125000 109.000000
45.000000 0.000000 109.000000
67.500000 -50.250000 109.000000
67.500000 -25.125000 109.000000
67.500000 0.000000 109.000000
22.500000 50.250000 109.000000
22.500000 25.125000 109.000000
45.000000 25.125000 109.000000
