-99.500000 -81.375000 -93.500000
-99.500000 -108.500000 -70.125000
-99.500000 -108.500000 -93.500000
-99.500000 -81.375000 -70.125000
-99.500000 -108.500000 -46.750000
-99.500000 -54.250000 -93.500000
-99.500000 -81.375000 -46.750000
-99.500000 -108.500000 -23.375000
-99.500000 -81.375000 -23.375000
-99.500000 -108.500000 0.000000
-99.500000 -54.250000 -46.750000
-99.500000 -54.250000 -70.125000
-99.500000 -27.125000 -70.125000
-99.500000 -27.125000 -93.500000
-99.500000 0.000000 -93.500000
-99.500000 -81.375000 0.000000
-99.500000 -108.500000 23.375000
-99.500000 -81.375000 23.375000
-99.500000 -108.500000 46.750000
-99.500000 -54.250000 0.000000
-99.500000 -81.375000 46.750000
-99.500000 -108.500000 70.125000
-99.500000 -81.375000 70.125000
-99.500000 -108.500000 93.500000
-99.500000 -54.250000 46.750000
-99.500000 -54.250000 23.375000
-99.500000 -27.125000 23.375000
-99.500000 -27.125000 0.000000
-99.500000 0.000000 0.000000
-99.500000 0.000000 -23.375000
-99.500000 27.125000 -23.375000
-99.500000 27.125000 -46.750000
-99.500000 54.250000 -46.750000
-99.500000 0.000000 -46.750000
-99.500000 54.250000 -70.125000
-99.500000 81.375000 -70.125000
-99.500000 81.375000 -93.500000
-99.500000 108.500000 -93.500000
-99.500000 54.250000 -93.500000
-99.500000 27.125000 -70.125000
-99.500000 27.125000 -93.500000
-99.500000 0.000000 -70.125000
-99.500000 -54.250000 -23.375000
-99.500000 -27.125000 -23.375000
-99.500000 -27.125000 -46.750000
-99.500000 81.375000 93.500000
-99.500000 108.500000 70.125000
-99.500000 108.500000 93.500000
-99.500000 81.375000 70.125000
-99.500000 108.500000 46.750000
-99.500000 54.250000 93.500000
-99.500000 81.375000 46.750000
-99.500000 108.500000 23.375000
-99.500000 81.375000 23.375000
-99.500000 108.500000 0.000000
-99.500000 54.250000 46.750000
-99.500000 54.250000 70.125000
-99.500000 27.125000 70.125000
-99.500000 27.125000 93.500000
-99.500000 0.000000 93.500000
-99.500000 81.375000 0.000000
-99.500000 108.500000 -23.375000
-99.500000 81.375000 -23.375000
-99.500000 108.500000 -46.750000
-99.500000 54.250000 0.000000
-99.500000 81.375000 -46.750000
-99.500000 108.500000 -70.125000
-99.500000 54.250000 -23.375000
-99.500000 27.125000 0.000000
-99.500000 0.000000 23.375000
-99.500000 -27.125000 46.750000
-99.500000 0.000000 46.750000
-99.500000 -54.250000 70.125000
-99.500000 -81.375000 93.500000
-99.500000 -54.250000 93.500000
-99.500000 -27.125000 70.125000
-99.500000 -27.125000 93.500000
-99.500000 0.000000 70.125000
-99.500000 54.250000 23.375000
-99.500000 27.125000 23.375000
-99.500000 27.125000 46.750000
99.500000 -108.500000 -70.125000
99.500000 -81.375000 -93.500000
99.500000 -108.500000 -93.500000
99.500000 -81.375000 -70.125000
99.500000 -54.250000 -93.500000
99.500000 -108.500000 -46.750000
99.500000 -54.250000 -70.125000
99.500000 -27.125000 -93.500000
99.500000 -27.125000 -70.125000
99.500000 0.000000 -93.500000
99.500000 -54.250000 -46.750000
99.500000 -81.375000 -46.750000
99.500000 -81.375000 -23.375000
99.500000 -108.500000 -23.375000
99.500000 -108.500000 0.000000
99.500000 0.000000 -70.125000
99.500000 27.125000 -93.500000
99.500000 27.125000 -70.125000
99.500000 54.250000 -93.500000
99.500000 0.000000 -46.750000
99.500000 54.250000 -70.125000
99.500000 81.375000 -93.500000
99.500000 81.375000 -70.125000
99.500000 108.500000 -93.500000
99.500000 54.250000 -46.750000
99.500000 27.125000 -46.750000
99.500000 27.125000 -23.375000
99.500000 0.000000 -23.375000
99.500000 0.000000 0.000000
99.500000 -27.125000 0.000000
99.500000 -27.125000 23.375000
99.500000 -54.250000 23.375000
99.500000 -54.250000 46.750000
99.500000 -54.250000 0.000000
99.500000 -81.375000 46.750000
99.500000 -81.375000 70.125000
99.500000 -108.500000 70.125000
99.500000 -108.500000 93.500000
99.500000 -108.500000 46.750000
99.500000 -81.375000 23.375000
99.500000 -108.500000 23.375000
99.500000 -81.375000 0.000000
99.500000 -27.125000 -46.750000
99.500000 -27.125000 -23.375000
99.500000 -54.250000 -23.375000
99.500000 108.500000 70.125000
99.500000 81.375000 93.500000
99.500000 108.500000 93.500000
99.500000 81.375000 70.125000
99.500000 54.250000 93.500000
99.500000 108.500000 46.750000
99.500000 54.250000 70.125000
99.500000 27.125000 93.500000
99.500000 27.125000 70.125000
99.500000 0.000000 93.500000
99.500000 54.250000 46.750000
99.500000 81.375000 46.750000
99.500000 81.375000 23.375000
99.500000 108.500000 23.375000
99.500000 108.500000 0.000000
99.500000 0.000000 70.125000
99.500000 -27.125000 93.500000
99.500000 -27.125000 70.125000
99.500000 -54.250000 93.500000
99.500000 0.000000 46.750000
99.500000 -54.250000 70.125000
99.500000 -81.375000 93.500000
99.500000 -27.125000 46.750000
99.500000 0.000000 23.375000
99.500000 27.125000 0.000000
99.500000 54.250000 -23.375000
99.500000 54.250000 0.000000
99.500000 81.375000 -46.750000
99.500000 108.500000 -70.125000
99.500000 108.500000 -46.750000
99.500000 81.375000 -23.375000
99.500000 108.500000 -23.375000
99.500000 81.375000 0.000000
99.500000 27.125000 46.750000
99.500000 27.125000 23.375000
99.500000 54.250000 23.375000
-74.625000 -108.500000 -93.500000
-74.625000 -108.500000 -70.125000
-49.750000 -108.500000 -93.500000
-49.750000 -108.500000 -70.125000
-24.875000 -108.500000 -93.500000
-24.875000 -108.500000 -70.125000
0.000000 -108.500000 -93.500000
-49.750000 -108.500000 -46.750000
-74.625000 -108.500000 -46.750000
-74.625000 -108.500000 -23.375000
0.000000 -108.500000 -70.125000
24.875000 -108.500000 -93.500000
24.875000 -108.500000 -70.125000
49.750000 -108.500000 -93.500000
0.000000 -108.500000 -46.750000
49.750000 -108.500000 -70.125000
74.625000 -108.500000 -93.500000
74.625000 -108.500000 -70.125000
49.750000 -108.500000 -46.750000
24.875000 -108.500000 -46.750000
24.875000 -108.500000 -23.375000
0.000000 -108.500000 -23.375000
0.000000 -108.500000 0.000000
-24.875000 -108.500000 0.000000
-24.875000 -108.500000 23.375000
-49.750000 -108.500000 23.375000
-49.750000 -108.500000 46.750000
-49.750000 -108.500000 0.000000
-74.625000 -108.500000 46.750000
-74.625000 -108.500000 70.125000
-74.625000 -108.500000 23.375000
-74.625000 -108.500000 0.000000
-24.875000 -108.500000 -46.750000
-24.875000 -108.500000 -23.375000
-49.750000 -108.500000 -23.375000
74.625000 -108.500000 93.500000
74.625000 -108.500000 70.125000
49.750000 -108.500000 93.500000
49.750000 -108.500000 70.125000
24.875000 -108.500000 93.500000
24.875000 -108.500000 70.125000
0.000000 -108.500000 93.500000
49.750000 -108.500000 46.750000
74.625000 -108.500000 46.750000
74.625000 -108.500000 23.375000
0.000000 -108.500000 70.125000
-24.875000 -108.500000 93.500000
-24.875000 -108.500000 70.125000
-49.750000 -108.500000 93.500000
0.000000 -108.500000 46.750000
-49.750000 -108.500000 70.125000
-74.625000 -108.500000 93.500000
-24.875000 -108.500000 46.750000
0.000000 -108.500000 23.375000
24.875000 -108.500000 0.000000
49.750000 -108.500000 -23.375000
49.750000 -108.500000 0.000000
74.625000 -108.500000 -46.750000
74.625000 -108.500000 -23.375000
74.625000 -108.500000 0.000000
24.875000 -108.500000 46.750000
24.875000 -108.500000 23.375000
49.750000 -108.500000 23.375000
-74.625000 108.500000 -93.500000
-74.625000 108.500000 -70.125000
-49.750000 108.500000 -93.500000
-74.625000 108.500000 -46.750000
-74.625000 108.500000 -23.375000
-49.750000 108.500000 -46.750000
-49.750000 108.500000 -70.125000
-24.875000 108.500000 -70.125000
-24.875000 108.500000 -93.500000
0.000000 108.500000 -93.500000
-74.625000 108.500000 0.000000
-74.625000 108.500000 23.375000
-49.750000 108.500000 0.000000
-74.625000 108.500000 46.750000
-74.625000 108.500000 70.125000
-49.750000 108.500000 46.750000
-49.750000 108.500000 23.375000
-24.875000 108.500000 23.375000
-24.875000 108.500000 0.000000
0.000000 108.500000 0.000000
0.000000 108.500000 -23.375000
24.875000 108.500000 -23.375000
24.875000 108.500000 -46.750000
49.750000 108.500000 -46.750000
0.000000 108.500000 -46.750000
49.750000 108.500000 -70.125000
74.625000 108.500000 -70.125000
74.625000 108.500000 -93.500000
49.750000 108.500000 -93.500000
24.875000 108.500000 -70.125000
24.875000 108.500000 -93.500000
0.000000 108.500000 -70.125000
-49.750000 108.500000 -23.375000
-24.875000 108.500000 -23.375000
-24.875000 108.500000 -46.750000
74.625000 108.500000 93.500000
74.625000 108.500000 70.125000
49.750000 108.500000 93.500000
74.625000 108.500000 46.750000
74.625000 108.500000 23.375000
49.750000 108.500000 46.750000
49.750000 108.500000 70.125000
24.875000 108.500000 70.125000
24.875000 108.500000 93.500000
0.000000 108.500000 93.500000
74.625000 108.500000 0.000000
74.625000 108.500000 -23.375000
49.750000 108.500000 0.000000
74.625000 108.500000 -46.750000
49.750000 108.500000 -23.375000
24.875000 108.500000 0.000000
0.000000 108.500000 23.375000
-24.875000 108.500000 46.750000
0.000000 108.500000 46.750000
-49.750000 108.500000 70.125000
-74.625000 108.500000 93.500000
-49.750000 108.500000 93.500000
-24.875000 108.500000 70.125000
-24.875000 108.500000 93.500000
0.000000 108.500000 70.125000
49.750000 108.500000 23.375000
24.875000 108.500000 23.375000
24.875000 108.500000 46.750000
-74.625000 -81.375000 -93.500000
-74.625000 -54.250000 -93.500000
-74.625000 -27.125000 -93.500000
-49.750000 -54.250000 -93.500000
-49.750000 -81.375000 -93.500000
-24.875000 -81.375000 -93.500000
-74.625000 0.000000 -93.500000
-74.625000 27.125000 -93.500000
-49.750000 0.000000 -93.500000
-74.625000 54.250000 -93.500000
-74.625000 81.375000 -93.500000
-49.750000 54.250000 -93.500000
-49.750000 27.125000 -93.500000
-24.875000 27.125000 -93.500000
-24.875000 0.000000 -93.500000
0.000000 0.000000 -93.500000
0.000000 -27.125000 -93.500000
24.875000 -27.125000 -93.500000
24.875000 -54.250000 -93.500000
49.750000 -54.250000 -93.500000
0.000000 -54.250000 -93.500000
49.750000 -81.375000 -93.500000
74.625000 -81.375000 -93.500000
24.875000 -81.375000 -93.500000
0.000000 -81.375000 -93.500000
-49.750000 -27.125000 -93.500000
-24.875000 -27.125000 -93.500000
-24.875000 -54.250000 -93.500000
74.625000 81.375000 -93.500000
74.625000 54.250000 -93.500000
74.625000 27.125000 -93.500000
49.750000 54.250000 -93.500000
49.750000 81.375000 -93.500000
24.875000 81.375000 -93.500000
74.625000 0.000000 -93.500000
74.625000 -27.125000 -93.500000
49.750000 0.000000 -93.500000
74.625000 -54.250000 -93.500000
49.750000 -27.125000 -93.500000
24.875000 0.000000 -93.500000
0.000000 27.125000 -93.500000
-24.875000 54.250000 -93.500000
0.000000 54.250000 -93.500000
-49.750000 81.375000 -93.500000
-24.875000 81.375000 -93.500000
0.000000 81.375000 -93.500000
49.750000 27.125000 -93.500000
24.875000 27.125000 -93.500000
24.875000 54.250000 -93.500000
-74.625000 -81.375000 93.500000
-49.750000 -81.375000 93.500000
-24.875000 -81.375000 93.500000
-49.750000 -54.250000 93.500000
-74.625000 -54.250000 93.500000
-74.625000 -27.125000 93.500000
0.000000 -81.375000 93.500000
24.875000 -81.375000 93.500000
0.000000 -54.250000 93.500000
49.750000 -81.375000 93.500000
74.625000 -81.375000 93.500000
49.750000 -54.250000 93.500000
24.875000 -54.250000 93.500000
24.875000 -27.125000 93.500000
0.000000 -27.125000 93.500000
0.000000 0.000000 93.500000
-24.875000 0.000000 93.500000
-24.875000 27.125000 93.500000
-49.750000 27.125000 93.500000
-49.750000 54.250000 93.500000
-49.750000 0.000000 93.500000
-74.625000 54.250000 93.500000
-74.625000 81.375000 93.500000
-74.625000 27.125000 93.500000
-74.625000 0.000000 93.500000
-24.875000 -54.250000 93.500000
-24.875000 -27.125000 93.500000
-49.750000 -27.125000 93.500000
74.625000 81.375000 93.500000
49.750000 81.375000 93.500000
24.875000 81.375000 93.500000
49.750000 54.250000 93.500000
74.625000 54.250000 93.500000
74.625000 27.125000 93.500000
0.000000 81.375000 93.500000
-24.875000 81.375000 93.500000
0.000000 54.250000 93.500000
-49.750000 81.375000 93.500000
-24.875000 54.250000 93.500000
0.000000 27.125000 93.500000
24.875000 0.000000 93.500000
49.750000 -27.125000 93.500000
49.750000 0.000000 93.500000
74.625000 -54.250000 93.500000
74.625000 -27.125000 93.500000
74.625000 0.000000 93.500000
24.875000 54.250000 93.500000
24.875000 27.125000 93.500000
49.750000 27.125000 93.500000
