-108.500000 -81.750000 -95.000000
-108.500000 -109.000000 -71.250000
-108.500000 -109.000000 -95.000000
-108.500000 -81.750000 -71.250000
-108.500000 -109.000000 -47.500000
-108.500000 -54.500000 -95.000000
-108.500000 -81.750000 -47.500000
-108.500000 -109.000000 -23.750000
-108.500000 -81.750000 -23.750000
-108.500000 -109.000000 0.000000
-108.500000 -54.500000 -47.500000
-108.500000 -54.500000 -71.250000
-108.500000 -27.250000 -71.250000
-108.500000 -27.250000 -95.000000
-108.500000 0.000000 -95.000000
-108.500000 -81.750000 0.000000
-108.500000 -109.000000 23.750000
-108.500000 -81.750000 23.750000
-108.500000 -109.000000 47.500000
-108.500000 -54.500000 0.000000
-108.500000 -81.750000 47.500000
-108.500000 -109.000000 71.250000
-108.500000 -81.750000 71.250000
-108.500000 -109.000000 95.000000
-108.500000 -54.500000 47.500000
-108.500000 -54.500000 23.750000
-108.500000 -27.250000 23.750000
-108.500000 -27.250000 0.000000
-108.500000 0.000000 0.000000
-108.500000 0.000000 -23.750000
-108.500000 27.250000 -23.750000
-108.500000 27.250000 -47.500000
-108.500000 54.500000 -47.500000
-108.500000 0.000000 -47.500000
-108.500000 54.500000 -71.250000
-108.500000 81.750000 -71.250000
-108.500000 81.750000 -95.000000
-108.500000 109.000000 -95.000000
-108.500000 54.500000 -95.000000
-108.500000 27.250000 -71.250000
-108.500000 27.250000 -95.000000
-108.500000 0.000000 -71.250000
-108.500000 -54.500000 -23.750000
-108.500000 -27.250000 -23.750000
-108.500000 -27.250000 -47.500000
-108.500000 81.750000 95.000000
-108.500000 109.000000 71.250000
-108.500000 109.000000 95.000000
-108.500000 81.750000 71.250000
-108.500000 109.000000 47.500000
-108.500000 54.500000 95.000000
-108.500000 81.750000 47.500000
-108.500000 109.000000 23.750000
-108.500000 81.750000 23.750000
-108.500000 109.000000 0.000000
-108.500000 54.500000 47.500000
-108.500000 54.500000 71.250000
-108.500000 27.250000 71.250000
-108.500000 27.250000 95.000000
-108.500000 0.000000 95.000000
-108.500000 81.750000 0.000000
-108.500000 109.000000 -23.750000
-108.500000 81.750000 -23.750000
-108.500000 109.000000 -47.500000
-108.500000 54.500000 0.000000
-108.500000 81.750000 -47.500000
-108.500000 109.000000 -71.250000
-108.500000 54.500000 -23.750000
-108.500000 27.250000 0.000000
-108.500000 0.000000 23.750000
-108.500000 -27.250000 47.500000
-108.500000 0.000000 47.500000
-108.500000 -54.500000 71.250000
-108.500000 -81.750000 95.000000
-108.500000 -54.500000 95.000000
-108.500000 -27.250000 71.250000
-108.500000 -27.250000 95.000000
-108.500000 0.000000 71.250000
-108.500000 54.500000 23.750000
-108.500000 27.250000 23.750000
-108.500000 27.250000 47.500000
108.500000 -109.000000 -71.250000
108.500000 -81.750000 -95.000000
108.500000 -109.000000 -95.000000
108.500000 -81.750000 -71.250000
108.500000 -54.500000 -95.000000
108.500000 -109.000000 -47.500000
108.500000 -54.500000 -71.250000
108.500000 -27.250000 -95.000000
108.500000 -27.250000 -71.250000
108.500000 0.000000 -95.000000
108.500000 -54.500000 -47.500000
108.500000 -81.750000 -47.500000
108.500000 -81.750000 -23.750000
108.500000 -109.000000 -23.750000
108.500000 -109.000000 0.000000
108.500000 0.000000 -71.250000
108.500000 27.250000 -95.000000
108.500000 27.250000 -71.250000
108.500000 54.500000 -95.000000
108.500000 0.000000 -47.500000
108.500000 54.500000 -71.250000
108.500000 81.750000 -95.000000
108.500000 81.750000 -71.250000
108.500000 109.000000 -95.000000
108.500000 54.500000 -47.500000
108.500000 27.250000 -47.500000
108.500000 27.250000 -23.750000
108.500000 0.000000 -23.750000
108.500000 0.000000 0.000000
108.500000 -27.250000 0.000000
108.500000 -27.250000 23.750000
108.500000 -54.500000 23.750000
108.500000 -54.500000 47.500000
108.500000 -54.500000 0.000000
108.500000 -81.750000 47.500000
108.500000 -81.750000 71.250000
108.500000 -109.000000 71.250000
108.500000 -109.000000 95.000000
108.500000 -109.000000 47.500000
108.500000 -81.750000 23.750000
108.500000 -109.000000 23.750000
108.500000 -81.750000 0.000000
108.500000 -27.250000 -47.500000
108.500000 -27.250000 -23.750000
108.500000 -54.500000 -23.750000
108.500000 109.000000 71.250000
108.500000 81.750000 95.000000
108.500000 109.000000 95.000000
108.500000 81.750000 71.250000
108.500000 54.500000 95.000000
108.500000 109.000000 47.500000
108.500000 54.500000 71.250000
108.500000 27.250000 95.000000
108.500000 27.250000 71.250000
108.500000 0.000000 95.000000
108.500000 54.500000 47.500000
108.500000 81.750000 47.500000
108.500000 81.750000 23.750000
108.500000 109.000000 23.750000
108.500000 109.000000 0.000000
108.500000 0.000000 71.250000
108.500000 -27.250000 95.000000
108.500000 -27.250000 71.250000
108.500000 -54.500000 95.000000
108.500000 0.000000 47.500000
108.500000 -54.500000 71.250000
108.500000 -81.750000 95.000000
108.500000 -27.250000 47.500000
108.500000 0.000000 23.750000
108.500000 27.250000 0.000000
108.500000 54.500000 -23.750000
108.500000 54.500000 0.000000
108.500000 81.750000 -47.500000
108.500000 109.000000 -71.250000
108.500000 109.000000 -47.500000
108.500000 81.750000 -23.750000
108.500000 109.000000 -23.750000
108.500000 81.750000 0.000000
108.500000 27.250000 47.500000
108.500000 27.250000 23.750000
108.500000 54.500000 23.750000
-81.375000 -109.000000 -95.000000
-81.375000 -109.000000 -71.250000
-54.250000 -109.000000 -95.000000
-54.250000 -109.000000 -71.250000
-27.125000 -109.000000 -95.000000
-27.125000 -109.000000 -71.250000
0.000000 -109.000000 -95.000000
-54.250000 -109.000000 -47.500000
-81.375000 -109.000000 -47.500000
-81.375000 -109.000000 -23.750000
0.000000 -109.000000 -71.250000
27.125000 -109.000000 -95.000000
27.125000 -109.000000 -71.250000
54.250000 -109.000000 -95.000000
0.000000 -109.000000 -47.500000
54.250000 -109.000000 -71.250000
81.375000 -109.000000 -95.000000
81.375000 -109.000000 -71.250000
54.250000 -109.000000 -47.500000
27.125000 -109.000000 -47.500000
27.125000 -109.000000 -23.750000
0.000000 -109.000000 -23.750000
0.000000 -109.000000 0.000000
-27.125000 -109.000000 0.000000
-27.125000 -109.000000 23.750000
-54.250000 -109.000000 23.750000
-54.250000 -109.000000 47.500000
-54.250000 -109.000000 0.000000
-81.375000 -109.000000 47.500000
-81.375000 -109.000000 71.250000
-81.375000 -109.000000 23.750000
-81.375000 -109.000000 0.000000
-27.125000 -109.000000 -47.500000
-27.125000 -109.000000 -23.750000
-54.250000 -109.000000 -23.750000
81.375000 -109.000000 95.000000
81.375000 -109.000000 71.250000
54.250000 -109.000000 95.000000
54.250000 -109.000000 71.250000
27.125000 -109.000000 95.000000
27.125000 -109.000000 71.250000
0.000000 -109.000000 95.000000
54.250000 -109.000000 47.500000
81.375000 -109.000000 47.500000
81.375000 -109.000000 23.750000
0.000000 -109.000000 71.250000
-27.125000 -109.000000 95.000000
-27.125000 -109.000000 71.250000
-54.250000 -109.000000 95.000000
0.000000 -109.000000 47.500000
-54.250000 -109.000000 71.250000
-81.375000 -109.000000 95.000000
-27.125000 -109.000000 47.500000
0.000000 -109.000000 23.750000
27.125000 -109.000000 0.000000
54.250000 -109.000000 -23.750000
54.250000 -109.000000 0.000000
81.375000 -109.000000 -47.500000
81.375000 -109.000000 -23.750000
81.375000 -109.000000 0.000000
27.125000 -109.000000 47.500000
27.125000 -109.000000 23.750000
54.250000 -109.000000 23.750000
-81.375000 109.000000 -95.000000
-81.375000 109.000000 -71.250000
-54.250000 109.000000 -95.000000
-81.375000 109.000000 -47.500000
-81.375000 109.000000 -23.750000
-54.250000 109.000000 -47.500000
-54.250000 109.000000 -71.250000
-27.125000 109.000000 -71.250000
-27.125000 109.000000 -95.000000
0.000000 109.000000 -95.000000
-81.375000 109.000000 0.000000
-81.375000 109.000000 23.750000
-54.250000 109.000000 0.000000
-81.375000 109.000000 47.500000
-81.375000 109.000000 71.250000
-54.250000 109.000000 47.500000
-54.250000 109.000000 23.750000
-27.125000 109.000000 23.750000
-27.125000 109.000000 0.000000
0.000000 109.000000 0.000000
0.000000 109.000000 -23.750000
27.125000 109.000000 -23.750000
27.125000 109.000000 -47.500000
54.250000 109.000000 -47.500000
0.000000 109.000000 -47.500000
54.250000 109.000000 -71.250000
81.375000 109.000000 -71.250000
81.375000 109.000000 -95.000000
54.250000 109.000000 -95.000000
27.125000 109.000000 -71.250000
27.125000 109.000000 -95.000000
0.000000 109.000000 -71.250000
-54.250000 109.000000 -23.750000
-27.125000 109.000000 -23.750000
-27.125000 109.000000 -47.500000
81.375000 109.000000 95.000000
81.375000 109.000000 71.250000
54.250000 109.000000 95.000000
81.375000 109.000000 47.500000
81.375000 109.000000 23.750000
54.250000 109.000000 47.500000
54.250000 109.000000 71.250000
27.125000 109.000000 71.250000
27.125000 109.000000 95.000000
0.000000 109.000000 95.000000
81.375000 109.000000 0.000000
81.375000 109.000000 -23.750000
54.250000 109.000000 0.000000
81.375000 109.000000 -47.500000
54.250000 109.000000 -23.750000
27.125000 109.000000 0.000000
0.000000 109.000000 23.750000
-27.125000 109.000000 47.500000
0.000000 109.000000 47.500000
-54.250000 109.000000 71.250000
-81.375000 109.000000 95.000000
-54.250000 109.000000 95.000000
-27.125000 109.000000 71.250000
-27.125000 109.000000 95.000000
0.000000 109.000000 71.250000
54.250000 109.000000 23.750000
27.125000 109.000000 23.750000
27.125000 109.000000 47.500000
-81.375000 -81.750000 -95.000000
-81.375000 -54.500000 -95.000000
-81.375000 -27.250000 -95.000000
-54.250000 -54.500000 -95.000000
-54.250000 -81.750000 -95.000000
-27.125000 -81.750000 -95.000000
-81.375000 0.000000 -95.000000
-81.375000 27.250000 -95.000000
-54.250000 0.000000 -95.000000
-81.375000 54.500000 -95.000000
-81.375000 81.750000 -95.000000
-54.250000 54.500000 -95.000000
-54.250000 27.250000 -95.000000
-27.125000 27.250000 -95.000000
-27.125000 0.000000 -95.000000
0.000000 0.000000 -95.000000
0.000000 -27.250000 -95.000000
27.125000 -27.250000 -95.000000
27.125000 -54.500000 -95.000000
54.250000 -54.500000 -95.000000
0.000000 -54.500000 -95.000000
54.250000 -81.750000 -95.000000
81.375000 -81.750000 -95.000000
27.125000 -81.750000 -95.000000
0.000000 -81.750000 -95.000000
-54.250000 -27.250000 -95.000000
-27.125000 -27.250000 -95.000000
-27.125000 -54.500000 -95.000000
81.375000 81.750000 -95.000000
81.375000 54.500000 -95.000000
81.375000 27.250000 -95.000000
54.250000 54.500000 -95.000000
54.250000 81.750000 -95.000000
27.125000 81.750000 -95.000000
81.375000 0.000000 -95.000000
81.375000 -27.250000 -95.000000
54.250000 0.000000 -95.000000
81.375000 -54.500000 -95.000000
54.250000 -27.250000 -95.000000
27.125000 0.000000 -95.000000
0.000000 27.250000 -95.000000
-27.125000 54.500000 -95.000000
0.000000 54.500000 -95.000000
-54.250000 81.750000 -95.000000
-27.125000 81.750000 -95.000000
0.000000 81.750000 -95.000000
54.250000 27.250000 -95.000000
27.125000 27.250000 -95.000000
27.125000 54.500000 -95.000000
-81.375000 -81.750000 95.000000
-54.250000 -81.750000 95.000000
-27.125000 -81.750000 95.000000
-54.250000 -54.500000 95.000000
-81.375000 -54.500000 95.000000
-81.375000 -27.250000 95.000000
0.000000 -81.750000 95.000000
27.125000 -81.750000 95.000000
0.000000 -54.500000 95.000000
54.250000 -81.750000 95.000000
81.375000 -81.750000 95.000000
54.250000 -54.500000 95.000000
27.125000 -54.500000 95.000000
27.125000 -27.250000 95.000000
0.000000 -27.250000 95.000000
0.000000 0.000000 95.000000
-27.125000 0.000000 95.000000
-27.125000 27.250000 95.000000
-54.250000 27.250000 95.000000
-54.250000 54.500000 95.000000
-54.250000 0.000000 95.000000
-81.375000 54.500000 95.000000
-81.375000 81.750000 95.000000
-81.375000 27.250000 95.000000
-81.375000 0.000000 95.000000
-27.125000 -54.500000 95.000000
-27.125000 -27.250000 95.000000
-54.250000 -27.250000 95.000000
81.375000 81.750000 95.000000
54.250000 81.750000 95.000000
27.125000 81.750000 95.000000
54.250000 54.500000 95.000000
81.375000 54.500000 95.000000
81.375000 27.250000 95.000000
0.000000 81.750000 95.000000
-27.125000 81.750000 95.000000
0.000000 54.500000 95.000000
-54.250000 81.750000 95.000000
-27.125000 54.500000 95.000000
0.000000 27.250000 95.000000
27.125000 0.000000 95.000000
54.250000 -27.250000 95.000000
54.250000 0.000000 95.000000
81.375000 -54.500000 95.000000
81.375000 -27.250000 95.000000
81.375000 0.000000 95.000000
27.125000 54.500000 95.000000
27.125000 27.250000 95.000000
54.250000 27.250000 95.000000
