-105.000000 -82.500000 -109.000000
-105.000000 -110.000000 -81.750000
-105.000000 -110.000000 -109.000000
-105.000000 -82.500000 -81.750000
-105.000000 -110.000000 -54.500000
-105.000000 -55.000000 -109.000000
-105.000000 -82.500000 -54.500000
-105.000000 -110.000000 -27.250000
-105.000000 -82.500000 -27.250000
-105.000000 -110.000000 0.000000
-105.000000 -55.000000 -54.500000
-105.000000 -55.000000 -81.750000
-105.000000 -27.500000 -81.750000
-105.000000 -27.500000 -109.000000
-105.000000 0.000000 -109.000000
-105.000000 -82.500000 0.000000
-105.000000 -110.000000 27.250000
-105.000000 -82.500000 27.250000
-105.000000 -110.000000 54.500000
-105.000000 -55.000000 0.000000
-105.000000 -82.500000 54.500000
-105.000000 -110.000000 81.750000
-105.000000 -82.500000 81.750000
-105.000000 -110.000000 109.000000
-105.000000 -55.000000 54.500000
-105.000000 -55.000000 27.250000
-105.000000 -27.500000 27.250000
-105.000000 -27.500000 0.000000
-105.000000 0.000000 0.000000
-105.000000 0.000000 -27.250000
-105.000000 27.500000 -27.250000
-105.000000 27.500000 -54.500000
-105.000000 55.000000 -54.500000
-105.000000 0.000000 -54.500000
-105.000000 55.000000 -81.750000
-105.000000 82.500000 -81.750000
-105.000000 82.500000 -109.000000
-105.000000 110.000000 -109.000000
-105.000000 55.000000 -109.000000
-105.000000 27.500000 -81.750000
-105.000000 27.500000 -109.000000
-105.000000 0.000000 -81.750000
-105.000000 -55.000000 -27.250000
-105.000000 -27.500000 -27.250000
-105.000000 -27.500000 -54.500000
-105.000000 82.500000 109.000000
-105.000000 110.000000 81.750000
-105.000000 110.000000 109.000000
-105.000000 82.500000 81.750000
-105.000000 110.000000 54.500000
-105.000000 55.000000 109.000000
-105.000000 82.500000 54.500000
-105.000000 110.000000 27.250000
-105.000000 82.500000 27.250000
-105.000000 110.000000 0.000000
-105.000000 55.000000 54.500000
-105.000000 55.000000 81.750000
-105.000000 27.500000 81.750000
-105.000000 27.500000 109.000000
-105.000000 0.000000 109.000000
-105.000000 82.500000 0.000000
-105.000000 110.000000 -27.250000
-105.000000 82.500000 -27.250000
-105.000000 110.000000 -54.500000
-105.000000 55.000000 0.000000
-105.000000 82.500000 -54.500000
-105.000000 110.000000 -81.750000
-105.000000 55.000000 -27.250000
-105.000000 27.500000 0.000000
-105.000000 0.000000 27.250000
-105.000000 -27.500000 54.500000
-105.000000 0.000000 54.500000
-105.000000 -55.000000 81.750000
-105.000000 -82.500000 109.000000
-105.000000 -55.000000 109.000000
-105.000000 -27.500000 81.750000
-105.000000 -27.500000 109.000000
-105.000000 0.000000 81.750000
-105.000000 55.000000 27.250000
-105.000000 27.500000 27.250000
-105.000000 27.500000 54.500000
105.000000 -110.000000 -81.750000
105.000000 -82.500000 -109.000000
105.000000 -110.000000 -109.000000
105.000000 -82.500000 -81.750000
105.000000 -55.000000 -109.000000
105.000000 -110.000000 -54.500000
105.000000 -55.000000 -81.750000
105.000000 -27.500000 -109.000000
105.000000 -27.500000 -81.750000
105.000000 0.000000 -109.000000
105.000000 -55.000000 -54.500000
105.000000 -82.500000 -54.500000
105.000000 -82.500000 -27.250000
105.000000 -110.000000 -27.250000
105.000000 -110.000000 0.000000
105.000000 0.000000 -81.750000
105.000000 27.500000 -109.000000
105.000000 27.500000 -81.750000
105.000000 55.000000 -109.000000
105.000000 0.000000 -54.500000
105.000000 55.000000 -81.750000
105.000000 82.500000 -109.000000
105.000000 82.500000 -81.750000
105.000000 110.000000 -109.000000
105.000000 55.000000 -54.500000
105.000000 27.500000 -54.500000
105.000000 27.500000 -27.250000
105.000000 0.000000 -27.250000
105.000000 0.000000 0.000000
105.000000 -27.500000 0.000000
105.000000 -27.500000 27.250000
105.000000 -55.000000 27.250000
105.000000 -55.000000 54.500000
105.000000 -55.000000 0.000000
105.000000 -82.500000 54.500000
105.000000 -82.500000 81.750000
105.000000 -110.000000 81.750000
105.000000 -110.000000 109.000000
105.000000 -110.000000 54.500000
105.000000 -82.500000 27.250000
105.000000 -110.000000 27.250000
105.000000 -82.500000 0.000000
105.000000 -27.500000 -54.500000
105.000000 -27.500000 -27.250000
105.000000 -55.000000 -27.250000
105.000000 110.000000 81.750000
105.000000 82.500000 109.000000
105.000000 110.000000 109.000000
105.000000 82.500000 81.750000
105.000000 55.000000 109.000000
105.000000 110.000000 54.500000
105.000000 55.000000 81.750000
105.000000 27.500000 109.000000
105.000000 27.500000 81.750000
105.000000 0.000000 109.000000
105.000000 55.000000 54.500000
105.000000 82.500000 54.500000
105.000000 82.500000 27.250000
105.000000 110.000000 27.250000
105.000000 110.000000 0.000000
105.000000 0.000000 81.750000
105.000000 -27.500000 109.000000
105.000000 -27.500000 81.750000
105.000000 -55.000000 109.000000
105.000000 0.000000 54.500000
105.000000 -55.000000 81.750000
105.000000 -82.500000 109.000000
105.000000 -27.500000 54.500000
105.000000 0.000000 27.250000
105.000000 27.500000 0.000000
105.000000 55.000000 -27.250000
105.000000 55.000000 0.000000
105.000000 82.500000 -54.500000
105.000000 110.000000 -81.750000
105.000000 110.000000 -54.500000
105.000000 82.500000 -27.250000
105.000000 110.000000 -27.250000
105.000000 82.500000 0.000000
105.000000 27.500000 54.500000
105.000000 27.500000 27.250000
105.000000 55.000000 27.250000
-78.750000 -110.000000 -109.000000
-78.750000 -110.000000 -81.750000
-52.500000 -110.000000 -109.000000
-52.500000 -110.000000 -81.750000
-26.250000 -110.000000 -109.000000
-26.250000 -110.000000 -81.750000
0.000000 -110.000000 -109.000000
-52.500000 -110.000000 -54.500000
-78.750000 -110.000000 -54.500000
-78.750000 -110.000000 -27.250000
0.000000 -110.000000 -81.750000
26.250000 -110.000000 -109.000000
26.250000 -110.000000 -81.750000
52.500000 -110.000000 -109.000000
0.000000 -110.000000 -54.500000
52.500000 -110.000000 -81.750000
78.750000 -110.000000 -109.000000
78.750000 -110.000000 -81.750000
52.500000 -110.000000 -54.500000
26.250000 -110.000000 -54.500000
26.250000 -110.000000 -27.250000
0.000000 -110.000000 -27.250000
0.000000 -110.000000 0.000000
-26.250000 -110.000000 0.000000
-26.250000 -110.000000 27.250000
-52.500000 -110.000000 27.250000
-52.500000 -110.000000 54.500000
-52.500000 -110.000000 0.000000
-78.750000 -110.000000 54.500000
-78.750000 -110.000000 81.750000
-78.750000 -110.000000 27.250000
-78.750000 -110.000000 0.000000
-26.250000 -110.000000 -54.500000
-26.250000 -110.000000 -27.250000
-52.500000 -110.000000 -27.250000
78.750000 -110.000000 109.000000
78.750000 -110.000000 81.750000
52.500000 -110.000000 109.000000
52.500000 -110.000000 81.750000
26.250000 -110.000000 109.000000
26.250000 -110.000000 81.750000
0.000000 -110.000000 109.000000
52.500000 -110.000000 54.500000
78.750000 -110.000000 54.500000
78.750000 -110.000000 27.250000
0.000000 -110.000000 81.750000
-26.250000 -110.000000 109.000000
-26.250000 -110.000000 81.750000
-52.500000 -110.000000 109.000000
0.000000 -110.000000 54.500000
-52.500000 -110.000000 81.750000
-78.750000 -110.000000 109.000000
-26.250000 -110.000000 54.500000
0.000000 -110.000000 27.250000
26.250000 -110.000000 0.000000
52.500000 -110.000000 -27.250000
52.500000 -110.000000 0.000000
78.750000 -110.000000 -54.500000
78.750000 -110.000000 -27.250000
78.750000 -110.000000 0.000000
26.250000 -110.000000 54.500000
26.250000 -110.000000 27.250000
52.500000 -110.000000 27.250000
-78.750000 110.000000 -109.000000
-78.750000 110.000000 -81.750000
-52.500000 110.000000 -109.000000
-78.750000 110.000000 -54.500000
-78.750000 110.000000 -27.250000
-52.500000 110.000000 -54.500000
-52.500000 110.000000 -81.750000
-26.250000 110.000000 -81.750000
-26.250000 110.000000 -109.000000
0.000000 110.000000 -109.000000
-78.750000 110.000000 0.000000
-78.750000 110.000000 27.250000
-52.500000 110.000000 0.000000
-78.750000 110.000000 54.500000
-78.750000 110.000000 81.750000
-52.500000 110.000000 54.500000
-52.500000 110.000000 27.250000
-26.250000 110.000000 27.250000
-26.250000 110.000000 0.000000
0.000000 110.000000 0.000000
0.000000 110.000000 -27.250000
26.250000 110.000000 -27.250000
26.250000 110.000000 -54.500000
52.500000 110.000000 -54.500000
0.000000 110.000000 -54.500000
52.500000 110.000000 -81.750000
78.750000 110.000000 -81.750000
78.750000 110.000000 -109.000000
52.500000 110.000000 -109.000000
26.250000 110.000000 -81.750000
26.250000 110.000000 -109.000000
0.000000 110.000000 -81.750000
-52.500000 110.000000 -27.250000
-26.250000 110.000000 -27.250000
-26.250000 110.000000 -54.500000
78.750000 110.000000 109.000000
78.750000 110.000000 81.750000
52.500000 110.000000 109.000000
78.750000 110.000000 54.500000
78.750000 110.000000 27.250000
52.500000 110.000000 54.500000
52.500000 110.000000 81.750000
26.250000 110.000000 81.750000
26.250000 110.000000 109.000000
0.000000 110.000000 109.000000
78.750000 110.000000 0.000000
78.750000 110.000000 -27.250000
52.500000 110.000000 0.000000
78.750000 110.000000 -54.500000
52.500000 110.000000 -27.250000
26.250000 110.000000 0.000000
0.000000 110.000000 27.250000
-26.250000 110.000000 54.500000
0.000000 110.000000 54.500000
-52.500000 110.000000 81.750000
-78.750000 110.000000 109.000000
-52.500000 110.000000 109.000000
-26.250000 110.000000 81.750000
-26.250000 110.000000 109.000000
0.000000 110.000000 81.750000
52.500000 110.000000 27.250000
26.250000 110.000000 27.250000
26.250000 110.000000 54.500000
-78.750000 -82.500000 -109.000000
-78.750000 -55.000000 -109.000000
-78.750000 -27.500000 -109.000000
-52.500000 -55.000000 -109.000000
-52.500000 -82.500000 -109.000000
-26.250000 -82.500000 -109.000000
-78.750000 0.000000 -109.000000
-78.750000 27.500000 -109.000000
-52.500000 0.000000 -109.000000
-78.750000 55.000000 -109.000000
-78.750000 82.500000 -109.000000
-52.500000 55.000000 -109.000000
-52.500000 27.500000 -109.000000
-26.250000 27.500000 -109.000000
-26.250000 0.000000 -109.000000
0.000000 0.000000 -109.000000
0.000000 -27.500000 -109.000000
26.250000 -27.500000 -109.000000
26.250000 -55.000000 -109.000000
52.500000 -55.000000 -109.000000
0.000000 -55.000000 -109.000000
52.500000 -82.500000 -109.000000
78.750000 -82.500000 -109.000000
26.250000 -82.500000 -109.000000
0.000000 -82.500000 -109.000000
-52.500000 -27.500000 -109.000000
-26.250000 -27.500000 -109.000000
-26.250000 -55.000000 -109.000000
78.750000 82.500000 -109.000000
78.750000 55.000000 -109.000000
78.750000 27.500000 -109.000000
52.500000 55.000000 -109.000000
52.500000 82.500000 -109.000000
26.250000 82.500000 -109.000000
78.750000 0.000000 -109.000000
78.750000 -27.500000 -109.000000
52.500000 0.000000 -109.000000
78.750000 -55.000000 -109.000000
52.500000 -27.500000 -109.000000
26.250000 0.000000 -109.000000
0.000000 27.500000 -109.000000
-26.250000 55.000000 -109.000000
0.000000 55.000000 -109.000000
-52.500000 82.500000 -109.000000
-26.250000 82.500000 -109.000000
0.000000 82.500000 -109.000000
52.500000 27.500000 -109.000000
26.250000 27.500000 -109.000000
26.250000 55.000000 -109.000000
-78.750000 -82.500000 109.000000
-52.500000 -82.500000 109.000000
-26.250000 -82.500000 109.000000
-52.500000 -55.000000 109.000000
-78.750000 -55.000000 109.000000
-78.750000 -27.500000 109.000000
0.000000 -82.500000 109.000000
26.250000 -82.500000 109.000000
0.000000 -55.000000 109.000000
52.500000 -82.500000 109.000000
78.750000 -82.500000 109.000000
52.500000 -55.000000 109.000000
26.250000 -55.000000 109.000000
26.250000 -27.500000 109.000000
0.000000 -27.500000 109.000000
0.000000 0.000000 109.000000
-26.250000 0.000000 109.000000
-26.250000 27.500000 109.000000
-52.500000 27.500000 109.000000
-52.500000 55.000000 109.000000
-52.500000 0.000000 109.000000
-78.750000 55.000000 109.000000
-78.750000 82.500000 109.000000
-78.750000 27.500000 109.000000
-78.750000 0.000000 109.000000
-26.250000 -55.000000 109.000000
-26.250000 -27.500000 109.000000
-52.500000 -27.500000 109.000000
78.750000 82.500000 109.000000
52.500000 82.500000 109.000000
26.250000 82.500000 109.000000
52.500000 55.000000 109.000000
78.750000 55.000000 109.000000
78.750000 27.500000 109.000000
0.000000 82.500000 109.000000
-26.250000 82.500000 109.000000
0.000000 55.000000 109.000000
-52.500000 82.500000 109.000000
-26.250000 55.000000 109.000000
0.000000 27.500000 109.000000
26.250000 0.000000 109.000000
52.500000 -27.500000 109.000000
52.500000 0.000000 109.000000
78.750000 -55.000000 109.000000
78.750000 -27.500000 109.000000
78.750000 0.000000 109.000000
26.250000 55.000000 109.000000
26.250000 27.500000 109.000000
52.500000 27.500000 109.000000
