-93.000000 -70.500000 -107.500000
-93.000000 -94.000000 -80.625000
-93.000000 -94.000000 -107.500000
-93.000000 -70.500000 -80.625000
-93.000000 -94.000000 -53.750000
-93.000000 -47.000000 -107.500000
-93.000000 -70.500000 -53.750000
-93.000000 -94.000000 -26.875000
-93.000000 -70.500000 -26.875000
-93.000000 -94.000000 0.000000
-93.000000 -47.000000 -53.750000
-93.000000 -47.000000 -80.625000
-93.000000 -23.500000 -80.625000
-93.000000 -23.500000 -107.500000
-93.000000 0.000000 -107.500000
-93.000000 -70.500000 0.000000
-93.000000 -94.000000 26.875000
-93.000000 -70.500000 26.875000
-93.000000 -94.000000 53.750000
-93.000000 -47.000000 0.000000
-93.000000 -70.500000 53.750000
-93.000000 -94.000000 80.625000
-93.000000 -70.500000 80.625000
-93.000000 -94.000000 107.500000
-93.000000 -47.000000 53.750000
-93.000000 -47.000000 26.875000
-93.000000 -23.500000 26.875000
-93.000000 -23.500000 0.000000
-93.000000 0.000000 0.000000
-93.000000 0.000000 -26.875000
-93.000000 23.500000 -26.875000
-93.000000 23.500000 -53.750000
-93.000000 47.000000 -53.750000
-93.000000 0.000000 -53.750000
-93.000000 47.000000 -80.625000
-93.000000 70.500000 -80.625000
-93.000000 70.500000 -107.500000
-93.000000 94.000000 -107.500000
-93.000000 47.000000 -107.500000
-93.000000 23.500000 -80.625000
-93.000000 23.500000 -107.500000
-93.000000 0.000000 -80.625000
-93.000000 -47.000000 -26.875000
-93.000000 -23.500000 -26.875000
-93.000000 -23.500000 -53.750000
-93.000000 70.500000 107.500000
-93.000000 94.000000 80.625000
-93.000000 94.000000 107.500000
-93.000000 70.500000 80.625000
-93.000000 94.000000 53.750000
-93.000000 47.000000 107.500000
-93.000000 70.500000 53.750000
-93.000000 94.000000 26.875000
-93.000000 70.500000 26.875000
-93.000000 94.000000 0.000000
-93.000000 47.000000 53.750000
-93.000000 47.000000 80.625000
-93.000000 23.500000 80.625000
-93.000000 23.500000 107.500000
-93.000000 0.000000 107.500000
-93.000000 70.500000 0.000000
-93.000000 94.000000 -26.875000
-93.000000 70.500000 -26.875000
-93.000000 94.000000 -53.750000
-93.000000 47.000000 0.000000
-93.000000 70.500000 -53.750000
-93.000000 94.000000 -80.625000
-93.000000 47.000000 -26.875000
-93.000000 23.500000 0.000000
-93.000000 0.000000 26.875000
-93.000000 -23.500000 53.750000
-93.000000 0.000000 53.750000
-93.000000 -47.000000 80.625000
-93.000000 -70.500000 107.500000
-93.000000 -47.000000 107.500000
-93.000000 -23.500000 80.625000
-93.000000 -23.500000 107.500000
-93.000000 0.000000 80.625000
-93.000000 47.000000 26.875000
-93.000000 23.500000 26.875000
-93.000000 23.500000 53.750000
93.000000 -94.000000 -80.625000
93.000000 -70.500000 -107.500000
93.000000 -94.000000 -107.500000
93.000000 -70.500000 -80.625000
93.000000 -47.000000 -107.500000
93.000000 -94.000000 -53.750000
93.000000 -47.000000 -80.625000
93.000000 -23.500000 -107.500000
93.000000 -23.500000 -80.625000
93.000000 0.000000 -107.500000
93.000000 -47.000000 -53.750000
93.000000 -70.500000 -53.750000
93.000000 -70.500000 -26.875000
93.000000 -94.000000 -26.875000
93.000000 -94.000000 0.000000
93.000000 0.000000 -80.625000
93.000000 23.500000 -107.500000
93.000000 23.500000 -80.625000
93.000000 47.000000 -107.500000
93.000000 0.000000 -53.750000
93.000000 47.000000 -80.625000
93.000000 70.500000 -107.500000
93.000000 70.500000 -80.625000
93.000000 94.000000 -107.500000
93.000000 47.000000 -53.750000
93.000000 23.500000 -53.750000
93.000000 23.500000 -26.875000
93.000000 0.000000 -26.875000
93.000000 0.000000 0.000000
93.000000 -23.500000 0.000000
93.000000 -23.500000 26.875000
93.000000 -47.000000 26.875000
93.000000 -47.000000 53.750000
93.000000 -47.000000 0.000000
93.000000 -70.500000 53.750000
93.000000 -70.500000 80.625000
93.000000 -94.000000 80.625000
93.000000 -94.000000 107.500000
93.000000 -94.000000 53.750000
93.000000 -70.500000 26.875000
93.000000 -94.000000 26.875000
93.000000 -70.500000 0.000000
93.000000 -23.500000 -53.750000
93.000000 -23.500000 -26.875000
93.000000 -47.000000 -26.875000
93.000000 94.000000 80.625000
93.000000 70.500000 107.500000
93.000000 94.000000 107.500000
93.000000 70.500000 80.625000
93.000000 47.000000 107.500000
93.000000 94.000000 53.750000
93.000000 47.000000 80.625000
93.000000 23.500000 107.500000
93.000000 23.500000 80.625000
93.000000 0.000000 107.500000
93.000000 47.000000 53.750000
93.000000 70.500000 53.750000
93.000000 70.500000 26.875000
93.000000 94.000000 26.875000
93.000000 94.000000 0.000000
93.000000 0.000000 80.625000
93.000000 -23.500000 107.500000
93.000000 -23.500000 80.625000
93.000000 -47.000000 107.500000
93.000000 0.000000 53.750000
93.000000 -47.000000 80.625000
93.000000 -70.500000 107.500000
93.000000 -23.500000 53.750000
93.000000 0.000000 26.875000
93.000000 23.500000 0.000000
93.000000 47.000000 -26.875000
93.000000 47.000000 0.000000
93.000000 70.500000 -53.750000
93.000000 94.000000 -80.625000
93.000000 94.000000 -53.750000
93.000000 70.500000 -26.875000
93.000000 94.000000 -26.875000
93.000000 70.500000 0.000000
93.000000 23.500000 53.750000
93.000000 23.500000 26.875000
93.000000 47.000000 26.875000
-69.750000 -94.000000 -107.500000
-69.750000 -94.000000 -80.625000
-46.500000 -94.000000 -107.500000
-46.500000 -94.000000 -80.625000
-23.250000 -94.000000 -107.500000
-23.250000 -94.000000 -80.625000
0.000000 -94.000000 -107.500000
-46.500000 -94.000000 -53.750000
-69.750000 -94.000000 -53.750000
-69.750000 -94.000000 -26.875000
0.000000 -94.000000 -80.625000
23.250000 -94.000000 -107.500000
23.250000 -94.000000 -80.625000
46.500000 -94.000000 -107.500000
0.000000 -94.000000 -53.750000
46.500000 -94.000000 -80.625000
69.750000 -94.000000 -107.500000
69.750000 -94.000000 -80.625000
46.500000 -94.000000 -53.750000
23.250000 -94.000000 -53.750000
23.250000 -94.000000 -26.875000
0.000000 -94.000000 -26.875000
0.000000 -94.000000 0.000000
-23.250000 -94.000000 0.000000
-23.250000 -94.000000 26.875000
-46.500000 -94.000000 26.875000
-46.500000 -94.000000 53.750000
-46.500000 -94.000000 0.000000
-69.750000 -94.000000 53.750000
-69.750000 -94.000000 80.625000
-69.750000 -94.000000 26.875000
-69.750000 -94.000000 0.000000
-23.250000 -94.000000 -53.750000
-23.250000 -94.000000 -26.875000
-46.500000 -94.000000 -26.875000
69.750000 -94.000000 107.500000
69.750000 -94.000000 80.625000
46.500000 -94.000000 107.500000
46.500000 -94.000000 80.625000
23.250000 -94.000000 107.500000
23.250000 -94.000000 80.625000
0.000000 -94.000000 107.500000
46.500000 -94.000000 53.750000
69.750000 -94.000000 53.750000
69.750000 -94.000000 26.875000
0.000000 -94.000000 80.625000
-23.250000 -94.000000 107.500000
-23.250000 -94.000000 80.625000
-46.500000 -94.000000 107.500000
0.000000 -94.000000 53.750000
-46.500000 -94.000000 80.625000
-69.750000 -94.000000 107.500000
-23.250000 -94.000000 53.750000
0.000000 -94.000000 26.875000
23.250000 -94.000000 0.000000
46.500000 -94.000000 -26.875000
46.500000 -94.000000 0.000000
69.750000 -94.000000 -53.750000
69.750000 -94.000000 -26.875000
69.750000 -94.000000 0.000000
23.250000 -94.000000 53.750000
23.250000 -94.000000 26.875000
46.500000 -94.000000 26.875000
-69.750000 94.000000 -107.500000
-69.750000 94.000000 -80.625000
-46.500000 94.000000 -107.500000
-69.750000 94.000000 -53.750000
-69.750000 94.000000 -26.875000
-46.500000 94.000000 -53.750000
-46.500000 94.000000 -80.625000
-23.250000 94.000000 -80.625000
-23.250000 94.000000 -107.500000
0.000000 94.000000 -107.500000
-69.750000 94.000000 0.000000
-69.750000 94.000000 26.875000
-46.500000 94.000000 0.000000
-69.750000 94.000000 53.750000
-69.750000 94.000000 80.625000
-46.500000 94.000000 53.750000
-46.500000 94.000000 26.875000
-23.250000 94.000000 26.875000
-23.250000 94.000000 0.000000
0.000000 94.000000 0.000000
0.000000 94.000000 -26.875000
23.250000 94.000000 -26.875000
23.250000 94.000000 -53.750000
46.500000 94.000000 -53.750000
0.000000 94.000000 -53.750000
46.500000 94.000000 -80.625000
69.750000 94.000000 -80.625000
69.750000 94.000000 -107.500000
46.500000 94.000000 -107.500000
23.250000 94.000000 -80.625000
23.250000 94.000000 -107.500000
0.000000 94.000000 -80.625000
-46.500000 94.000000 -26.875000
-23.250000 94.000000 -26.875000
-23.250000 94.000000 -53.750000
69.750000 94.000000 107.500000
69.750000 94.000000 80.625000
46.500000 94.000000 107.500000
69.750000 94.000000 53.750000
69.750000 94.000000 26.875000
46.500000 94.000000 53.750000
46.500000 94.000000 80.625000
23.250000 94.000000 80.625000
23.250000 94.000000 107.500000
0.000000 94.000000 107.500000
69.750000 94.000000 0.000000
69.750000 94.000000 -26.875000
46.500000 94.000000 0.000000
69.750000 94.000000 -53.750000
46.500000 94.000000 -26.875000
23.250000 94.000000 0.000000
0.000000 94.000000 26.875000
-23.250000 94.000000 53.750000
0.000000 94.000000 53.750000
-46.500000 94.000000 80.625000
-69.750000 94.000000 107.500000
-46.500000 94.000000 107.500000
-23.250000 94.000000 80.625000
-23.250000 94.000000 107.500000
0.000000 94.000000 80.625000
46.500000 94.000000 26.875000
23.250000 94.000000 26.875000
23.250000 94.000000 53.750000
-69.750000 -70.500000 -107.500000
-69.750000 -47.000000 -107.500000
-69.750000 -23.500000 -107.500000
-46.500000 -47.000000 -107.500000
-46.500000 -70.500000 -107.500000
-23.250000 -70.500000 -107.500000
-69.750000 0.000000 -107.500000
-69.750000 23.500000 -107.500000
-46.500000 0.000000 -107.500000
-69.750000 47.000000 -107.500000
-69.750000 70.500000 -107.500000
-46.500000 47.000000 -107.500000
-46.500000 23.500000 -107.500000
-23.250000 23.500000 -107.500000
-23.250000 0.000000 -107.500000
0.000000 0.000000 -107.500000
0.000000 -23.500000 -107.500000
23.250000 -23.500000 -107.500000
23.250000 -47.000000 -107.500000
46.500000 -47.000000 -107.500000
0.000000 -47.000000 -107.500000
46.500000 -70.500000 -107.500000
69.750000 -70.500000 -107.500000
23.250000 -70.500000 -107.500000
0.000000 -70.500000 -107.500000
-46.500000 -23.500000 -107.500000
-23.250000 -23.500000 -107.500000
-23.250000 -47.000000 -107.500000
69.750000 70.500000 -107.500000
69.750000 47.000000 -107.500000
69.750000 23.500000 -107.500000
46.500000 47.000000 -107.500000
46.500000 70.500000 -107.500000
23.250000 70.500000 -107.500000
69.750000 0.000000 -107.500000
69.750000 -23.500000 -107.500000
46.500000 0.000000 -107.500000
69.750000 -47.000000 -107.500000
46.500000 -23.500000 -107.500000
23.250000 0.000000 -107.500000
0.000000 23.500000 -107.500000
-23.250000 47.000000 -107.500000
0.000000 47.000000 -107.500000
-46.500000 70.500000 -107.500000
-23.250000 70.500000 -107.500000
0.000000 70.500000 -107.500000
46.500000 23.500000 -107.500000
23.250000 23.500000 -107.500000
23.250000 47.000000 -107.500000
-69.750000 -70.500000 107.500000
-46.500000 -70.500000 107.500000
-23.250000 -70.500000 107.500000
-46.500000 -47.000000 107.500000
-69.750000 -47.000000 107.500000
-69.750000 -23.500000 107.500000
0.000000 -70.500000 107.500000
23.250000 -70.500000 107.500000
0.000000 -47.000000 107.500000
46.500000 -70.500000 107.500000
69.750000 -70.500000 107.500000
46.500000 -47.000000 107.500000
23.250000 -47.000000 107.500000
23.250000 -23.500000 107.500000
0.000000 -23.500000 107.500000
0.000000 0.000000 107.500000
-23.250000 0.000000 107.500000
-23.250000 23.500000 107.500000
-46.500000 23.500000 107.500000
-46.500000 47.000000 107.500000
-46.500000 0.000000 107.500000
-69.750000 47.000000 107.500000
-69.750000 70.500000 107.500000
-69.750000 23.500000 107.500000
-69.750000 0.000000 107.500000
-23.250000 -47.000000 107.500000
-23.250000 -23.500000 107.500000
-46.500000 -23.500000 107.500000
69.750000 70.500000 107.500000
46.500000 70.500000 107.500000
23.250000 70.500000 107.500000
46.500000 47.000000 107.500000
69.750000 47.000000 107.500000
69.750000 23.500000 107.500000
0.000000 70.500000 107.500000
-23.250000 70.500000 107.500000
0.000000 47.000000 107.500000
-46.500000 70.500000 107.500000
-23.250000 47.000000 107.500000
0.000000 23.500000 107.500000
23.250000 0.000000 107.500000
46.500000 -23.500000 107.500000
46.500000 0.000000 107.500000
69.750000 -47.000000 107.500000
69.750000 -23.500000 107.500000
69.750000 0.000000 107.500000
23.250000 47.000000 107.500000
23.250000 23.500000 107.500000
46.500000 23.500000 107.500000
