-104.000000 -82.500000 -102.500000
-104.000000 -110.000000 -76.875000
-104.000000 -110.000000 -102.500000
-104.000000 -82.500000 -76.875000
-104.000000 -110.000000 -51.250000
-104.000000 -55.000000 -102.500000
-104.000000 -82.500000 -51.250000
-104.000000 -110.000000 -25.625000
-104.000000 -82.500000 -25.625000
-104.000000 -110.000000 0.000000
-104.000000 -55.000000 -51.250000
-104.000000 -55.000000 -76.875000
-104.000000 -27.500000 -76.875000
-104.000000 -27.500000 -102.500000
-104.000000 0.000000 -102.500000
-104.000000 -82.500000 0.000000
-104.000000 -110.000000 25.625000
-104.000000 -82.500000 25.625000
-104.000000 -110.000000 51.250000
-104.000000 -55.000000 0.000000
-104.000000 -82.500000 51.250000
-104.000000 -110.000000 76.875000
-104.000000 -82.500000 76.875000
-104.000000 -110.000000 102.500000
-104.000000 -55.000000 51.250000
-104.000000 -55.000000 25.625000
-104.000000 -27.500000 25.625000
-104.000000 -27.500000 0.000000
-104.000000 0.000000 0.000000
-104.000000 0.000000 -25.625000
-104.000000 27.500000 -25.625000
-104.000000 27.500000 -51.250000
-104.000000 55.000000 -51.250000
-104.000000 0.000000 -51.250000
-104.000000 55.000000 -76.875000
-104.000000 82.500000 -76.875000
-104.000000 82.500000 -102.500000
-104.000000 110.000000 -102.500000
-104.000000 55.000000 -102.500000
-104.000000 27.500000 -76.875000
-104.000000 27.500000 -102.500000
-104.000000 0.000000 -76.875000
-104.000000 -55.000000 -25.625000
-104.000000 -27.500000 -25.625000
-104.000000 -27.500000 -51.250000
-104.000000 82.500000 102.500000
-104.000000 110.000000 76.875000
-104.000000 110.000000 102.500000
-104.000000 82.500000 76.875000
-104.000000 110.000000 51.250000
-104.000000 55.000000 102.500000
-104.000000 82.500000 51.250000
-104.000000 110.000000 25.625000
-104.000000 82.500000 25.625000
-104.000000 110.000000 0.000000
-104.000000 55.000000 51.250000
-104.000000 55.000000 76.875000
-104.000000 27.500000 76.875000
-104.000000 27.500000 102.500000
-104.000000 0.000000 102.500000
-104.000000 82.500000 0.000000
-104.000000 110.000000 -25.625000
-104.000000 82.500000 -25.625000
-104.000000 110.000000 -51.250000
-104.000000 55.000000 0.000000
-104.000000 82.500000 -51.250000
-104.000000 110.000000 -76.875000
-104.000000 55.000000 -25.625000
-104.000000 27.500000 0.000000
-104.000000 0.000000 25.625000
-104.000000 -27.500000 51.250000
-104.000000 0.000000 51.250000
-104.000000 -55.000000 76.875000
-104.000000 -82.500000 102.500000
-104.000000 -55.000000 102.500000
-104.000000 -27.500000 76.875000
-104.000000 -27.500000 102.500000
-104.000000 0.000000 76.875000
-104.000000 55.000000 25.625000
-104.000000 27.500000 25.625000
-104.000000 27.500000 51.250000
104.000000 -110.000000 -76.875000
104.000000 -82.500000 -102.500000
104.000000 -110.000000 -102.500000
104.000000 -82.500000 -76.875000
104.000000 -55.000000 -102.500000
104.000000 -110.000000 -51.250000
104.000000 -55.000000 -76.875000
104.000000 -27.500000 -102.500000
104.000000 -27.500000 -76.875000
104.000000 0.000000 -102.500000
104.000000 -55.000000 -51.250000
104.000000 -82.500000 -51.250000
104.000000 -82.500000 -25.625000
104.000000 -110.000000 -25.625000
104.000000 -110.000000 0.000000
104.000000 0.000000 -76.875000
104.000000 27.500000 -102.500000
104.000000 27.500000 -76.875000
104.000000 55.000000 -102.500000
104.000000 0.000000 -51.250000
104.000000 55.000000 -76.875000
104.000000 82.500000 -102.500000
104.000000 82.500000 -76.875000
104.000000 110.000000 -102.500000
104.000000 55.000000 -51.250000
104.000000 27.500000 -51.250000
104.000000 27.500000 -25.625000
104.000000 0.000000 -25.625000
104.000000 0.000000 0.000000
104.000000 -27.500000 0.000000
104.000000 -27.500000 25.625000
104.000000 -55.000000 25.625000
104.000000 -55.000000 51.250000
104.000000 -55.000000 0.000000
104.000000 -82.500000 51.250000
104.000000 -82.500000 76.875000
104.000000 -110.000000 76.875000
104.000000 -110.000000 102.500000
104.000000 -110.000000 51.250000
104.000000 -82.500000 25.625000
104.000000 -110.000000 25.625000
104.000000 -82.500000 0.000000
104.000000 -27.500000 -51.250000
104.000000 -27.500000 -25.625000
104.000000 -55.000000 -25.625000
104.000000 110.000000 76.875000
104.000000 82.500000 102.500000
104.000000 110.000000 102.500000
104.000000 82.500000 76.875000
104.000000 55.000000 102.500000
104.000000 110.000000 51.250000
104.000000 55.000000 76.875000
104.000000 27.500000 102.500000
104.000000 27.500000 76.875000
104.000000 0.000000 102.500000
104.000000 55.000000 51.250000
104.000000 82.500000 51.250000
104.000000 82.500000 25.625000
104.000000 110.000000 25.625000
104.000000 110.000000 0.000000
104.000000 0.000000 76.875000
104.000000 -27.500000 102.500000
104.000000 -27.500000 76.875000
104.000000 -55.000000 102.500000
104.000000 0.000000 51.250000
104.000000 -55.000000 76.875000
104.000000 -82.500000 102.500000
104.000000 -27.500000 51.250000
104.000000 0.000000 25.625000
104.000000 27.500000 0.000000
104.000000 55.000000 -25.625000
104.000000 55.000000 0.000000
104.000000 82.500000 -51.250000
104.000000 110.000000 -76.875000
104.000000 110.000000 -51.250000
104.000000 82.500000 -25.625000
104.000000 110.000000 -25.625000
104.000000 82.500000 0.000000
104.000000 27.500000 51.250000
104.000000 27.500000 25.625000
104.000000 55.000000 25.625000
-78.000000 -110.000000 -102.500000
-78.000000 -110.000000 -76.875000
-52.000000 -110.000000 -102.500000
-52.000000 -110.000000 -76.875000
-26.000000 -110.000000 -102.500000
-26.000000 -110.000000 -76.875000
0.000000 -110.000000 -102.500000
-52.000000 -110.000000 -51.250000
-78.000000 -110.000000 -51.250000
-78.000000 -110.000000 -25.625000
0.000000 -110.000000 -76.875000
26.000000 -110.000000 -102.500000
26.000000 -110.000000 -76.875000
52.000000 -110.000000 -102.500000
0.000000 -110.000000 -51.250000
52.000000 -110.000000 -76.875000
78.000000 -110.000000 -102.500000
78.000000 -110.000000 -76.875000
52.000000 -110.000000 -51.250000
26.000000 -110.000000 -51.250000
26.000000 -110.000000 -25.625000
0.000000 -110.000000 -25.625000
0.000000 -110.000000 0.000000
-26.000000 -110.000000 0.000000
-26.000000 -110.000000 25.625000
-52.000000 -110.000000 25.625000
-52.000000 -110.000000 51.250000
-52.000000 -110.000000 0.000000
-78.000000 -110.000000 51.250000
-78.000000 -110.000000 76.875000
-78.000000 -110.000000 25.625000
-78.000000 -110.000000 0.000000
-26.000000 -110.000000 -51.250000
-26.000000 -110.000000 -25.625000
-52.000000 -110.000000 -25.625000
78.000000 -110.000000 102.500000
78.000000 -110.000000 76.875000
52.000000 -110.000000 102.500000
52.000000 -110.000000 76.875000
26.000000 -110.000000 102.500000
26.000000 -110.000000 76.875000
0.000000 -110.000000 102.500000
52.000000 -110.000000 51.250000
78.000000 -110.000000 51.250000
78.000000 -110.000000 25.625000
0.000000 -110.000000 76.875000
-26.000000 -110.000000 102.500000
-26.000000 -110.000000 76.875000
-52.000000 -110.000000 102.500000
0.000000 -110.000000 51.250000
-52.000000 -110.000000 76.875000
-78.000000 -110.000000 102.500000
-26.000000 -110.000000 51.250000
0.000000 -110.000000 25.625000
26.000000 -110.000000 0.000000
52.000000 -110.000000 -25.625000
52.000000 -110.000000 0.000000
78.000000 -110.000000 -51.250000
78.000000 -110.000000 -25.625000
78.000000 -110.000000 0.000000
26.000000 -110.000000 51.250000
26.000000 -110.000000 25.625000
52.000000 -110.000000 25.625000
-78.000000 110.000000 -102.500000
-78.000000 110.000000 -76.875000
-52.000000 110.000000 -102.500000
-78.000000 110.000000 -51.250000
-78.000000 110.000000 -25.625000
-52.000000 110.000000 -51.250000
-52.000000 110.000000 -76.875000
-26.000000 110.000000 -76.875000
-26.000000 110.000000 -102.500000
0.000000 110.000000 -102.500000
-78.000000 110.000000 0.000000
-78.000000 110.000000 25.625000
-52.000000 110.000000 0.000000
-78.000000 110.000000 51.250000
-78.000000 110.000000 76.875000
-52.000000 110.000000 51.250000
-52.000000 110.000000 25.625000
-26.000000 110.000000 25.625000
-26.000000 110.000000 0.000000
0.000000 110.000000 0.000000
0.000000 110.000000 -25.625000
26.000000 110.000000 -25.625000
26.000000 110.000000 -51.250000
52.000000 110.000000 -51.250000
0.000000 110.000000 -51.250000
52.000000 110.000000 -76.875000
78.000000 110.000000 -76.875000
78.000000 110.000000 -102.500000
52.000000 110.000000 -102.500000
26.000000 110.000000 -76.875000
26.000000 110.000000 -102.500000
0.000000 110.000000 -76.875000
-52.000000 110.000000 -25.625000
-26.000000 110.000000 -25.625000
-26.000000 110.000000 -51.250000
78.000000 110.000000 102.500000
78.000000 110.000000 76.875000
52.000000 110.000000 102.500000
78.000000 110.000000 51.250000
78.000000 110.000000 25.625000
52.000000 110.000000 51.250000
52.000000 110.000000 76.875000
26.000000 110.000000 76.875000
26.000000 110.000000 102.500000
0.000000 110.000000 102.500000
78.000000 110.000000 0.000000
78.000000 110.000000 -25.625000
52.000000 110.000000 0.000000
78.000000 110.000000 -51.250000
52.000000 110.000000 -25.625000
26.000000 110.000000 0.000000
0.000000 110.000000 25.625000
-26.000000 110.000000 51.250000
0.000000 110.000000 51.250000
-52.000000 110.000000 76.875000
-78.000000 110.000000 102.500000
-52.000000 110.000000 102.500000
-26.000000 110.000000 76.875000
-26.000000 110.000000 102.500000
0.000000 110.000000 76.875000
52.000000 110.000000 25.625000
26.000000 110.000000 25.625000
26.000000 110.000000 51.250000
-78.000000 -82.500000 -102.500000
-78.000000 -55.000000 -102.500000
-78.000000 -27.500000 -102.500000
-52.000000 -55.000000 -102.500000
-52.000000 -82.500000 -102.500000
-26.000000 -82.500000 -102.500000
-78.000000 0.000000 -102.500000
-78.000000 27.500000 -102.500000
-52.000000 0.000000 -102.500000
-78.000000 55.000000 -102.500000
-78.000000 82.500000 -102.500000
-52.000000 55.000000 -102.500000
-52.000000 27.500000 -102.500000
-26.000000 27.500000 -102.500000
-26.000000 0.000000 -102.500000
0.000000 0.000000 -102.500000
0.000000 -27.500000 -102.500000
26.000000 -27.500000 -102.500000
26.000000 -55.000000 -102.500000
52.000000 -55.000000 -102.500000
0.000000 -55.000000 -102.500000
52.000000 -82.500000 -102.500000
78.000000 -82.500000 -102.500000
26.000000 -82.500000 -102.500000
0.000000 -82.500000 -102.500000
-52.000000 -27.500000 -102.500000
-26.000000 -27.500000 -102.500000
-26.000000 -55.000000 -102.500000
78.000000 82.500000 -102.500000
78.000000 55.000000 -102.500000
78.000000 27.500000 -102.500000
52.000000 55.000000 -102.500000
52.000000 82.500000 -102.500000
26.000000 82.500000 -102.500000
78.000000 0.000000 -102.500000
78.000000 -27.500000 -102.500000
52.000000 0.000000 -102.500000
78.000000 -55.000000 -102.500000
52.000000 -27.500000 -102.500000
26.000000 0.000000 -102.500000
0.000000 27.500000 -102.500000
-26.000000 55.000000 -102.500000
0.000000 55.000000 -102.500000
-52.000000 82.500000 -102.500000
-26.000000 82.500000 -102.500000
0.000000 82.500000 -102.500000
52.000000 27.500000 -102.500000
26.000000 27.500000 -102.500000
26.000000 55.000000 -102.500000
-78.000000 -82.500000 102.500000
-52.000000 -82.500000 102.500000
-26.000000 -82.500000 102.500000
-52.000000 -55.000000 102.500000
-78.000000 -55.000000 102.500000
-78.000000 -27.500000 102.500000
0.000000 -82.500000 102.500000
26.000000 -82.500000 102.500000
0.000000 -55.000000 102.500000
52.000000 -82.500000 102.500000
78.000000 -82.500000 102.500000
52.000000 -55.000000 102.500000
26.000000 -55.000000 102.500000
26.000000 -27.500000 102.500000
0.000000 -27.500000 102.500000
0.000000 0.000000 102.500000
-26.000000 0.000000 102.500000
-26.000000 27.500000 102.500000
-52.000000 27.500000 102.500000
-52.000000 55.000000 102.500000
-52.000000 0.000000 102.500000
-78.000000 55.000000 102.500000
-78.000000 82.500000 102.500000
-78.000000 27.500000 102.500000
-78.000000 0.000000 102.500000
-26.000000 -55.000000 102.500000
-26.000000 -27.500000 102.500000
-52.000000 -27.500000 102.500000
78.000000 82.500000 102.500000
52.000000 82.500000 102.500000
26.000000 82.500000 102.500000
52.000000 55.000000 102.500000
78.000000 55.000000 102.500000
78.000000 27.500000 102.500000
0.000000 82.500000 102.500000
-26.000000 82.500000 102.500000
0.000000 55.000000 102.500000
-52.000000 82.500000 102.500000
-26.000000 55.000000 102.500000
0.000000 27.500000 102.500000
26.000000 0.000000 102.500000
52.000000 -27.500000 102.500000
52.000000 0.000000 102.500000
78.000000 -55.000000 102.500000
78.000000 -27.500000 102.500000
78.000000 0.000000 102.500000
26.000000 55.000000 102.500000
26.000000 27.500000 102.500000
52.000000 27.500000 102.500000
