-101.500000 -80.250000 -90.000000
-101.500000 -107.000000 -67.500000
-101.500000 -107.000000 -90.000000
-101.500000 -80.250000 -67.500000
-101.500000 -107.000000 -45.000000
-101.500000 -53.500000 -90.000000
-101.500000 -80.250000 -45.000000
-101.500000 -107.000000 -22.500000
-101.500000 -80.250000 -22.500000
-101.500000 -107.000000 0.000000
-101.500000 -53.500000 -45.000000
-101.500000 -53.500000 -67.500000
-101.500000 -26.750000 -67.500000
-101.500000 -26.750000 -90.000000
-101.500000 0.000000 -90.000000
-101.500000 -80.250000 0.000000
-101.500000 -107.000000 22.500000
-101.500000 -80.250000 22.500000
-101.500000 -107.000000 45.000000
-101.500000 -53.500000 0.000000
-101.500000 -80.250000 45.000000
-101.500000 -107.000000 67.500000
-101.500000 -80.250000 67.500000
-101.500000 -107.000000 90.000000
-101.500000 -53.500000 45.000000
-101.500000 -53.500000 22.500000
-101.500000 -26.750000 22.500000
-101.500000 -26.750000 0.000000
-101.500000 0.000000 0.000000
-101.500000 0.000000 -22.500000
-101.500000 26.750000 -22.500000
-101.500000 26.750000 -45.000000
-101.500000 53.500000 -45.000000
-101.500000 0.000000 -45.000000
-101.500000 53.500000 -67.500000
-101.500000 80.250000 -67.500000
-101.500000 80.250000 -90.000000
-101.500000 107.000000 -90.000000
-101.500000 53.500000 -90.000000
-101.500000 26.750000 -67.500000
-101.500000 26.750000 -90.000000
-101.500000 0.000000 -67.500000
-101.500000 -53.500000 -22.500000
-101.500000 -26.750000 -22.500000
-101.500000 -26.750000 -45.000000
-101.500000 80.250000 90.000000
-101.500000 107.000000 67.500000
-101.500000 107.000000 90.000000
-101.500000 80.250000 67.500000
-101.500000 107.000000 45.000000
-101.500000 53.500000 90.000000
-101.500000 80.250000 45.000000
-101.500000 107.000000 22.500000
-101.500000 80.250000 22.500000
-101.500000 107.000000 0.000000
-101.500000 53.500000 45.000000
-101.500000 53.500000 67.500000
-101.500000 26.750000 67.500000
-101.500000 26.750000 90.000000
-101.500000 0.000000 90.000000
-101.500000 80.250000 0.000000
-101.500000 107.000000 -22.500000
-101.500000 80.250000 -22.500000
-101.500000 107.000000 -45.000000
-101.500000 53.500000 0.000000
-101.500000 80.250000 -45.000000
-101.500000 107.000000 -67.500000
-101.500000 53.500000 -22.500000
-101.500000 26.750000 0.000000
-101.500000 0.000000 22.500000
-101.500000 -26.750000 45.000000
-101.500000 0.000000 45.000000
-101.500000 -53.500000 67.500000
-101.500000 -80.250000 90.000000
-101.500000 -53.500000 90.000000
-101.500000 -26.750000 67.500000
-101.500000 -26.750000 90.000000
-101.500000 0.000000 67.500000
-101.500000 53.500000 22.500000
-101.500000 26.750000 22.500000
-101.500000 26.750000 45.000000
101.500000 -107.000000 -67.500000
101.500000 -80.250000 -90.000000
101.500000 -107.000000 -90.000000
101.500000 -80.250000 -67.500000
101.500000 -53.500000 -90.000000
101.500000 -107.000000 -45.000000
101.500000 -53.500000 -67.500000
101.500000 -26.750000 -90.000000
101.500000 -26.750000 -67.500000
101.500000 0.000000 -90.000000
101.500000 -53.500000 -45.000000
101.500000 -80.250000 -45.000000
101.500000 -80.250000 -22.500000
101.500000 -107.000000 -22.500000
101.500000 -107.000000 0.000000
101.500000 0.000000 -67.500000
101.500000 26.750000 -90.000000
101.500000 26.750000 -67.500000
101.500000 53.500000 -90.000000
101.500000 0.000000 -45.000000
101.500000 53.500000 -67.500000
101.500000 80.250000 -90.000000
101.500000 80.250000 -67.500000
101.500000 107.000000 -90.000000
101.500000 53.500000 -45.000000
101.500000 26.750000 -45.000000
101.500000 26.750000 -22.500000
101.500000 0.000000 -22.500000
101.500000 0.000000 0.000000
101.500000 -26.750000 0.000000
101.500000 -26.750000 22.500000
101.500000 -53.500000 22.500000
101.500000 -53.500000 45.000000
101.500000 -53.500000 0.000000
101.500000 -80.250000 45.000000
101.500000 -80.250000 67.500000
101.500000 -107.000000 67.500000
101.500000 -107.000000 90.000000
101.500000 -107.000000 45.000000
101.500000 -80.250000 22.500000
101.500000 -107.000000 22.500000
101.500000 -80.250000 0.000000
101.500000 -26.750000 -45.000000
101.500000 -26.750000 -22.500000
101.500000 -53.500000 -22.500000
101.500000 107.000000 67.500000
101.500000 80.250000 90.000000
101.500000 107.000000 90.000000
101.500000 80.250000 67.500000
101.500000 53.500000 90.000000
101.500000 107.000000 45.000000
101.500000 53.500000 67.500000
101.500000 26.750000 90.000000
101.500000 26.750000 67.500000
101.500000 0.000000 90.000000
101.500000 53.500000 45.000000
101.500000 80.250000 45.000000
101.500000 80.250000 22.500000
101.500000 107.000000 22.500000
101.500000 107.000000 0.000000
101.500000 0.000000 67.500000
101.500000 -26.750000 90.000000
101.500000 -26.750000 67.500000
101.500000 -53.500000 90.000000
101.500000 0.000000 45.000000
101.500000 -53.500000 67.500000
101.500000 -80.250000 90.000000
101.500000 -26.750000 45.000000
101.500000 0.000000 22.500000
101.500000 26.750000 0.000000
101.500000 53.500000 -22.500000
101.500000 53.500000 0.000000
101.500000 80.250000 -45.000000
101.500000 107.000000 -67.500000
101.500000 107.000000 -45.000000
101.500000 80.250000 -22.500000
101.500000 107.000000 -22.500000
101.500000 80.250000 0.000000
101.500000 26.750000 45.000000
101.500000 26.750000 22.500000
101.500000 53.500000 22.500000
-76.125000 -107.000000 -90.000000
-76.125000 -107.000000 -67.500000
-50.750000 -107.000000 -90.000000
-50.750000 -107.000000 -67.500000
-25.375000 -107.000000 -90.000000
-25.375000 -107.000000 -67.500000
0.000000 -107.000000 -90.000000
-50.750000 -107.000000 -45.000000
-76.125000 -107.000000 -45.000000
-76.125000 -107.000000 -22.500000
0.000000 -107.000000 -67.500000
25.375000 -107.000000 -90.000000
25.375000 -107.000000 -67.500000
50.750000 -107.000000 -90.000000
0.000000 -107.000000 -45.000000
50.750000 -107.000000 -67.500000
76.125000 -107.000000 -90.000000
76.125000 -107.000000 -67.500000
50.750000 -107.000000 -45.000000
25.375000 -107.000000 -45.000000
25.375000 -107.000000 -22.500000
0.000000 -107.000000 -22.500000
0.000000 -107.000000 0.000000
-25.375000 -107.000000 0.000000
-25.375000 -107.000000 22.500000
-50.750000 -107.000000 22.500000
-50.750000 -107.000000 45.000000
-50.750000 -107.000000 0.000000
-76.125000 -107.000000 45.000000
-76.125000 -107.000000 67.500000
-76.125000 -107.000000 22.500000
-76.125000 -107.000000 0.000000
-25.375000 -107.000000 -45.000000
-25.375000 -107.000000 -22.500000
-50.750000 -107.000000 -22.500000
76.125000 -107.000000 90.000000
76.125000 -107.000000 67.500000
50.750000 -107.000000 90.000000
50.750000 -107.000000 67.500000
25.375000 -107.000000 90.000000
25.375000 -107.000000 67.500000
0.000000 -107.000000 90.000000
50.750000 -107.000000 45.000000
76.125000 -107.000000 45.000000
76.125000 -107.000000 22.500000
0.000000 -107.000000 67.500000
-25.375000 -107.000000 90.000000
-25.375000 -107.000000 67.500000
-50.750000 -107.000000 90.000000
0.000000 -107.000000 45.000000
-50.750000 -107.000000 67.500000
-76.125000 -107.000000 90.000000
-25.375000 -107.000000 45.000000
0.000000 -107.000000 22.500000
25.375000 -107.000000 0.000000
50.750000 -107.000000 -22.500000
50.750000 -107.000000 0.000000
76.125000 -107.000000 -45.000000
76.125000 -107.000000 -22.500000
76.125000 -107.000000 0.000000
25.375000 -107.000000 45.000000
25.375000 -107.000000 22.500000
50.750000 -107.000000 22.500000
-76.125000 107.000000 -90.000000
-76.125000 107.000000 -67.500000
-50.750000 107.000000 -90.000000
-76.125000 107.000000 -45.000000
-76.125000 107.000000 -22.500000
-50.750000 107.000000 -45.000000
-50.750000 107.000000 -67.500000
-25.375000 107.000000 -67.500000
-25.375000 107.000000 -90.000000
0.000000 107.000000 -90.000000
-76.125000 107.000000 0.000000
-76.125000 107.000000 22.500000
-50.750000 107.000000 0.000000
-76.125000 107.000000 45.000000
-76.125000 107.000000 67.500000
-50.750000 107.000000 45.000000
-50.750000 107.000000 22.500000
-25.375000 107.000000 22.500000
-25.375000 107.000000 0.000000
0.000000 107.000000 0.000000
0.000000 107.000000 -22.500000
25.375000 107.000000 -22.500000
25.375000 107.000000 -45.000000
50.750000 107.000000 -45.000000
0.000000 107.000000 -45.000000
50.750000 107.000000 -67.500000
76.125000 107.000000 -67.500000
76.125000 107.000000 -90.000000
50.750000 107.000000 -90.000000
25.375000 107.000000 -67.500000
25.375000 107.000000 -90.000000
0.000000 107.000000 -67.500000
-50.750000 107.000000 -22.500000
-25.375000 107.000000 -22.500000
-25.375000 107.000000 -45.000000
76.125000 107.000000 90.000000
76.125000 107.000000 67.500000
50.750000 107.000000 90.000000
76.125000 107.000000 45.000000
76.125000 107.000000 22.500000
50.750000 107.000000 45.000000
50.750000 107.000000 67.500000
25.375000 107.000000 67.500000
25.375000 107.000000 90.000000
0.000000 107.000000 90.000000
76.125000 107.000000 0.000000
76.125000 107.000000 -22.500000
50.750000 107.000000 0.000000
76.125000 107.000000 -45.000000
50.750000 107.000000 -22.500000
25.375000 107.000000 0.000000
0.000000 107.000000 22.500000
-25.375000 107.000000 45.000000
0.000000 107.000000 45.000000
-50.750000 107.000000 67.500000
-76.125000 107.000000 90.000000
-50.750000 107.000000 90.000000
-25.375000 107.000000 67.500000
-25.375000 107.000000 90.000000
0.000000 107.000000 67.500000
50.750000 107.000000 22.500000
25.375000 107.000000 22.500000
25.375000 107.000000 45.000000
-76.125000 -80.250000 -90.000000
-76.125000 -53.500000 -90.000000
-76.125000 -26.750000 -90.000000
-50.750000 -53.500000 -90.000000
-50.750000 -80.250000 -90.000000
-25.375000 -80.250000 -90.000000
-76.125000 0.000000 -90.000000
-76.125000 26.750000 -90.000000
-50.750000 0.000000 -90.000000
-76.125000 53.500000 -90.000000
-76.125000 80.250000 -90.000000
-50.750000 53.500000 -90.000000
-50.750000 26.750000 -90.000000
-25.375000 26.750000 -90.000000
-25.375000 0.000000 -90.000000
0.000000 0.000000 -90.000000
0.000000 -26.750000 -90.000000
25.375000 -26.750000 -90.000000
25.375000 -53.500000 -90.000000
50.750000 -53.500000 -90.000000
0.000000 -53.500000 -90.000000
50.750000 -80.250000 -90.000000
76.125000 -80.250000 -90.000000
25.375000 -80.250000 -90.000000
0.000000 -80.250000 -90.000000
-50.750000 -26.750000 -90.000000
-25.375000 -26.750000 -90.000000
-25.375000 -53.500000 -90.000000
76.125000 80.250000 -90.000000
76.125000 53.500000 -90.000000
76.125000 26.750000 -90.000000
50.750000 53.500000 -90.000000
50.750000 80.250000 -90.000000
25.375000 80.250000 -90.000000
76.125000 0.000000 -90.000000
76.125000 -26.750000 -90.000000
50.750000 0.000000 -90.000000
76.125000 -53.500000 -90.000000
50.750000 -26.750000 -90.000000
25.375000 0.000000 -90.000000
0.000000 26.750000 -90.000000
-25.375000 53.500000 -90.000000
0.000000 53.500000 -90.000000
-50.750000 80.250000 -90.000000
-25.375000 80.250000 -90.000000
0.000000 80.250000 -90.000000
50.750000 26.750000 -90.000000
25.375000 26.750000 -90.000000
25.375000 53.500000 -90.000000
-76.125000 -80.250000 90.000000
-50.750000 -80.250000 90.000000
-25.375000 -80.250000 90.000000
-50.750000 -53.500000 90.000000
-76.125000 -53.500000 90.000000
-76.125000 -26.750000 90.000000
0.000000 -80.250000 90.000000
25.375000 -80.250000 90.000000
0.000000 -53.500000 90.000000
50.750000 -80.250000 90.000000
76.125000 -80.250000 90.000000
50.750000 -53.500000 90.000000
25.375000 -53.500000 90.000000
25.375000 -26.750000 90.000000
0.000000 -26.750000 90.000000
0.000000 0.000000 90.000000
-25.375000 0.000000 90.000000
-25.375000 26.750000 90.000000
-50.750000 26.750000 90.000000
-50.750000 53.500000 90.000000
-50.750000 0.000000 90.000000
-76.125000 53.500000 90.000000
-76.125000 80.250000 90.000000
-76.125000 26.750000 90.000000
-76.125000 0.000000 90.000000
-25.375000 -53.500000 90.000000
-25.375000 -26.750000 90.000000
-50.750000 -26.750000 90.000000
76.125000 80.250000 90.000000
50.750000 80.250000 90.000000
25.375000 80.250000 90.000000
50.750000 53.500000 90.000000
76.125000 53.500000 90.000000
76.125000 26.750000 90.000000
0.000000 80.250000 90.000000
-25.375000 80.250000 90.000000
0.000000 53.500000 90.000000
-50.750000 80.250000 90.000000
-25.375000 53.500000 90.000000
0.000000 26.750000 90.000000
25.375000 0.000000 90.000000
50.750000 -26.750000 90.000000
50.750000 0.000000 90.000000
76.125000 -53.500000 90.000000
76.125000 -26.750000 90.000000
76.125000 0.000000 90.000000
25.375000 53.500000 90.000000
25.375000 26.750000 90.000000
50.750000 26.750000 90.000000
