-90.500000 -75.375000 -106.000000
-90.500000 -100.500000 -79.500000
-90.500000 -100.500000 -106.000000
-90.500000 -75.375000 -79.500000
-90.500000 -100.500000 -53.000000
-90.500000 -50.250000 -106.000000
-90.500000 -75.375000 -53.000000
-90.500000 -100.500000 -26.500000
-90.500000 -75.375000 -26.500000
-90.500000 -100.500000 0.000000
-90.500000 -50.250000 -53.000000
-90.500000 -50.250000 -79.500000
-90.500000 -25.125000 -79.500000
-90.500000 -25.125000 -106.000000
-90.500000 0.000000 -106.000000
-90.500000 -75.375000 0.000000
-90.500000 -100.500000 26.500000
-90.500000 -75.375000 26.500000
-90.500000 -100.500000 53.000000
-90.500000 -50.250000 0.000000
-90.500000 -75.375000 53.000000
-90.500000 -100.500000 79.500000
-90.500000 -75.375000 79.500000
-90.500000 -100.500000 106.000000
-90.500000 -50.250000 53.000000
-90.500000 -50.250000 26.500000
-90.500000 -25.125000 26.500000
-90.500000 -25.125000 0.000000
-90.500000 0.000000 0.000000
-90.500000 0.000000 -26.500000
-90.500000 25.125000 -26.500000
-90.500000 25.125000 -53.000000
-90.500000 50.250000 -53.000000
-90.500000 0.000000 -53.000000
-90.500000 50.250000 -79.500000
-90.500000 75.375000 -79.500000
-90.500000 75.375000 -106.000000
-90.500000 100.500000 -106.000000
-90.500000 50.250000 -106.000000
-90.500000 25.125000 -79.500000
-90.500000 25.125000 -106.000000
-90.500000 0.000000 -79.500000
-90.500000 -50.250000 -26.500000
-90.500000 -25.125000 -26.500000
-90.500000 -25.125000 -53.000000
-90.500000 75.375000 106.000000
-90.500000 100.500000 79.500000
-90.500000 100.500000 106.000000
-90.500000 75.375000 79.500000
-90.500000 100.500000 53.000000
-90.500000 50.250000 106.000000
-90.500000 75.375000 53.000000
-90.500000 100.500000 26.500000
-90.500000 75.375000 26.500000
-90.500000 100.500000 0.000000
-90.500000 50.250000 53.000000
-90.500000 50.250000 79.500000
-90.500000 25.125000 79.500000
-90.500000 25.125000 106.000000
-90.500000 0.000000 106.000000
-90.500000 75.375000 0.000000
-90.500000 100.500000 -26.500000
-90.500000 75.375000 -26.500000
-90.500000 100.500000 -53.000000
-90.500000 50.250000 0.000000
-90.500000 75.375000 -53.000000
-90.500000 100.500000 -79.500000
-90.500000 50.250000 -26.500000
-90.500000 25.125000 0.000000
-90.500000 0.000000 26.500000
-90.500000 -25.125000 53.000000
-90.500000 0.000000 53.000000
-90.500000 -50.250000 79.500000
-90.500000 -75.375000 106.000000
-90.500000 -50.250000 106.000000
-90.500000 -25.125000 79.500000
-90.500000 -25.125000 106.000000
-90.500000 0.000000 79.500000
-90.500000 50.250000 26.500000
-90.500000 25.125000 26.500000
-90.500000 25.125000 53.000000
90.500000 -100.500000 -79.500000
90.500000 -75.375000 -106.000000
90.500000 -100.500000 -106.000000
90.500000 -75.375000 -79.500000
90.500000 -50.250000 -106.000000
90.500000 -100.500000 -53.000000
90.500000 -50.250000 -79.500000
90.500000 -25.125000 -106.000000
90.500000 -25.125000 -79.500000
90.500000 0.000000 -106.000000
90.500000 -50.250000 -53.000000
90.500000 -75.375000 -53.000000
90.500000 -75.375000 -26.500000
90.500000 -100.500000 -26.500000
90.500000 -100.500000 0.000000
90.500000 0.000000 -79.500000
90.500000 25.125000 -106.000000
90.500000 25.125000 -79.500000
90.500000 50.250000 -106.000000
90.500000 0.000000 -53.000000
90.500000 50.250000 -79.500000
90.500000 75.375000 -106.000000
90.500000 75.375000 -79.500000
90.500000 100.500000 -106.000000
90.500000 50.250000 -53.000000
90.500000 25.125000 -53.000000
90.500000 25.125000 -26.500000
90.500000 0.000000 -26.500000
90.500000 0.000000 0.000000
90.500000 -25.125000 0.000000
90.500000 -25.125000 26.500000
90.500000 -50.250000 26.500000
90.500000 -50.250000 53.000000
90.500000 -50.250000 0.000000
90.500000 -75.375000 53.000000
90.500000 -75.375000 79.500000
90.500000 -100.500000 79.500000
90.500000 -100.500000 106.000000
90.500000 -100.500000 53.000000
90.500000 -75.375000 26.500000
90.500000 -100.500000 26.500000
90.500000 -75.375000 0.000000
90.500000 -25.125000 -53.000000
90.500000 -25.125000 -26.500000
90.500000 -50.250000 -26.500000
90.500000 100.500000 79.500000
90.500000 75.375000 106.000000
90.500000 100.500000 106.000000
90.500000 75.375000 79.500000
90.500000 50.250000 106.000000
90.500000 100.500000 53.000000
90.500000 50.250000 79.500000
90.500000 25.125000 106.000000
90.500000 25.125000 79.500000
90.500000 0.000000 106.000000
90.500000 50.250000 53.000000
90.500000 75.375000 53.000000
90.500000 75.375000 26.500000
90.500000 100.500000 26.500000
90.500000 100.500000 0.000000
90.500000 0.000000 79.500000
90.500000 -25.125000 106.000000
90.500000 -25.125000 79.500000
90.500000 -50.250000 106.000000
90.500000 0.000000 53.000000
90.500000 -50.250000 79.500000
90.500000 -75.375000 106.000000
90.500000 -25.125000 53.000000
90.500000 0.000000 26.500000
90.500000 25.125000 0.000000
90.500000 50.250000 -26.500000
90.500000 50.250000 0.000000
90.500000 75.375000 -53.000000
90.500000 100.500000 -79.500000
90.500000 100.500000 -53.000000
90.500000 75.375000 -26.500000
90.500000 100.500000 -26.500000
90.500000 75.375000 0.000000
90.500000 25.125000 53.000000
90.500000 25.125000 26.500000
90.500000 50.250000 26.500000
-67.875000 -100.500000 -106.000000
-67.875000 -100.500000 -79.500000
-45.250000 -100.500000 -106.000000
-45.250000 -100.500000 -79.500000
-22.625000 -100.500000 -106.000000
-22.625000 -100.500000 -79.500000
0.000000 -100.500000 -106.000000
-45.250000 -100.500000 -53.000000
-67.875000 -100.500000 -53.000000
-67.875000 -100.500000 -26.500000
0.000000 -100.500000 -79.500000
22.625000 -100.500000 -106.000000
22.625000 -100.500000 -79.500000
45.250000 -100.500000 -106.000000
0.000000 -100.500000 -53.000000
45.250000 -100.500000 -79.500000
67.875000 -100.500000 -106.000000
67.875000 -100.500000 -79.500000
45.250000 -100.500000 -53.000000
22.625000 -100.500000 -53.000000
22.625000 -100.500000 -26.500000
0.000000 -100.500000 -26.500000
0.000000 -100.500000 0.000000
-22.625000 -100.500000 0.000000
-22.625000 -100.500000 26.500000
-45.250000 -100.500000 26.500000
-45.250000 -100.500000 53.000000
-45.250000 -100.500000 0.000000
-67.875000 -100.500000 53.000000
-67.875000 -100.500000 79.500000
-67.875000 -100.500000 26.500000
-67.875000 -100.500000 0.000000
-22.625000 -100.500000 -53.000000
-22.625000 -100.500000 -26.500000
-45.250000 -100.500000 -26.500000
67.875000 -100.500000 106.000000
67.875000 -100.500000 79.500000
45.250000 -100.500000 106.000000
45.250000 -100.500000 79.500000
22.625000 -100.500000 106.000000
22.625000 -100.500000 79.500000
0.000000 -100.500000 106.000000
45.250000 -100.500000 53.000000
67.875000 -100.500000 53.000000
67.875000 -100.500000 26.500000
0.000000 -100.500000 79.500000
-22.625000 -100.500000 106.000000
-22.625000 -100.500000 79.500000
-45.250000 -100.500000 106.000000
0.000000 -100.500000 53.000000
-45.250000 -100.500000 79.500000
-67.875000 -100.500000 106.000000
-22.625000 -100.500000 53.000000
0.000000 -100.500000 26.500000
22.625000 -100.500000 0.000000
45.250000 -100.500000 -26.500000
45.250000 -100.500000 0.000000
67.875000 -100.500000 -53.000000
67.875000 -100.500000 -26.500000
67.875000 -100.500000 0.000000
22.625000 -100.500000 53.000000
22.625000 -100.500000 26.500000
45.250000 -100.500000 26.500000
-67.875000 100.500000 -106.000000
-67.875000 100.500000 -79.500000
-45.250000 100.500000 -106.000000
-67.875000 100.500000 -53.000000
-67.875000 100.500000 -26.500000
-45.250000 100.500000 -53.000000
-45.250000 100.500000 -79.500000
-22.625000 100.500000 -79.500000
-22.625000 100.500000 -106.000000
0.000000 100.500000 -106.000000
-67.875000 100.500000 0.000000
-67.875000 100.500000 26.500000
-45.250000 100.500000 0.000000
-67.875000 100.500000 53.000000
-67.875000 100.500000 79.500000
-45.250000 100.500000 53.000000
-45.250000 100.500000 26.500000
-22.625000 100.500000 26.500000
-22.625000 100.500000 0.000000
0.000000 100.500000 0.000000
0.000000 100.500000 -26.500000
22.625000 100.500000 -26.500000
22.625000 100.500000 -53.000000
45.250000 100.500000 -53.000000
0.000000 100.500000 -53.000000
45.250000 100.500000 -79.500000
67.875000 100.500000 -79.500000
67.875000 100.500000 -106.000000
45.250000 100.500000 -106.000000
22.625000 100.500000 -79.500000
22.625000 100.500000 -106.000000
0.000000 100.500000 -79.500000
-45.250000 100.500000 -26.500000
-22.625000 100.500000 -26.500000
-22.625000 100.500000 -53.000000
67.875000 100.500000 106.000000
67.875000 100.500000 79.500000
45.250000 100.500000 106.000000
67.875000 100.500000 53.000000
67.875000 100.500000 26.500000
45.250000 100.500000 53.000000
45.250000 100.500000 79.500000
22.625000 100.500000 79.500000
22.625000 100.500000 106.000000
0.000000 100.500000 106.000000
67.875000 100.500000 0.000000
67.875000 100.500000 -26.500000
45.250000 100.500000 0.000000
67.875000 100.500000 -53.000000
45.250000 100.500000 -26.500000
22.625000 100.500000 0.000000
0.000000 100.500000 26.500000
-22.625000 100.500000 53.000000
0.000000 100.500000 53.000000
-45.250000 100.500000 79.500000
-67.875000 100.500000 106.000000
-45.250000 100.500000 106.000000
-22.625000 100.500000 79.500000
-22.625000 100.500000 106.000000
0.000000 100.500000 79.500000
45.250000 100.500000 26.500000
22.625000 100.500000 26.500000
22.625000 100.500000 53.000000
-67.875000 -75.375000 -106.000000
-67.875000 -50.250000 -106.000000
-67.875000 -25.125000 -106.000000
-45.250000 -50.250000 -106.000000
-45.250000 -75.375000 -106.000000
-22.625000 -75.375000 -106.000000
-67.875000 0.000000 -106.000000
-67.875000 25.125000 -106.000000
-45.250000 0.000000 -106.000000
-67.875000 50.250000 -106.000000
-67.875000 75.375000 -106.000000
-45.250000 50.250000 -106.000000
-45.250000 25.125000 -106.000000
-22.625000 25.125000 -106.000000
-22.625000 0.000000 -106.000000
0.000000 0.000000 -106.000000
0.000000 -25.125000 -106.000000
22.625000 -25.125000 -106.000000
22.625000 -50.250000 -106.000000
45.250000 -50.250000 -106.000000
0.000000 -50.250000 -106.000000
45.250000 -75.375000 -106.000000
67.875000 -75.375000 -106.000000
22.625000 -75.375000 -106.000000
0.000000 -75.375000 -106.000000
-45.250000 -25.125000 -106.000000
-22.625000 -25.125000 -106.000000
-22.625000 -50.250000 -106.000000
67.875000 75.375000 -106.000000
67.875000 50.250000 -106.000000
67.875000 25.125000 -106.000000
45.250000 50.250000 -106.000000
45.250000 75.375000 -106.000000
22.625000 75.375000 -106.000000
67.875000 0.000000 -106.000000
67.875000 -25.125000 -106.000000
45.250000 0.000000 -106.000000
67.875000 -50.250000 -106.000000
45.250000 -25.125000 -106.000000
22.625000 0.000000 -106.000000
0.000000 25.125000 -106.000000
-22.625000 50.250000 -106.000000
0.000000 50.250000 -106.000000
-45.250000 75.375000 -106.000000
-22.625000 75.375000 -106.000000
0.000000 75.375000 -106.000000
45.250000 25.125000 -106.000000
22.625000 25.125000 -106.000000
22.625000 50.250000 -106.000000
-67.875000 -75.375000 106.000000
-45.250000 -75.375000 106.000000
-22.625000 -75.375000 106.000000
-45.250000 -50.250000 106.000000
-67.875000 -50.250000 106.000000
-67.875000 -25.125000 106.000000
0.000000 -75.375000 106.000000
22.625000 -75.375000 106.000000
0.000000 -50.250000 106.000000
45.250000 -75.375000 106.000000
67.875000 -75.375000 106.000000
45.250000 -50.250000 106.000000
22.625000 -50.250000 106.000000
22.625000 -25.125000 106.000000
0.000000 -25.125000 106.000000
0.000000 0.000000 106.000000
-22.625000 0.000000 106.000000
-22.625000 25.125000 106.000000
-45.250000 25.125000 106.000000
-45.250000 50.250000 106.000000
-45.250000 0.000000 106.000000
-67.875000 50.250000 106.000000
-67.875000 75.375000 106.000000
-67.875000 25.125000 106.000000
-67.875000 0.000000 106.000000
-22.625000 -50.250000 106.000000
-22.625000 -25.125000 106.000000
-45.250000 -25.125000 106.000000
67.875000 75.375000 106.000000
45.250000 75.375000 106.000000
22.625000 75.375000 106.000000
45.250000 50.250000 106.000000
67.875000 50.250000 106.000000
67.875000 25.125000 106.000000
0.000000 75.375000 106.000000
-22.625000 75.375000 106.000000
0.000000 50.250000 106.000000
-45.250000 75.375000 106.000000
-22.625000 50.250000 106.000000
0.000000 25.125000 106.000000
22.625000 0.000000 106.000000
45.250000 -25.125000 106.000000
45.250000 0.000000 106.000000
67.875000 -50.250000 106.000000
67.875000 -25.125000 106.000000
67.875000 0.000000 106.000000
22.625000 50.250000 106.000000
22.625000 25.125000 106.000000
45.250000 25.125000 106.000000
