-103.000000 -82.500000 -108.000000
-103.000000 -110.000000 -81.000000
-103.000000 -110.000000 -108.000000
-103.000000 -82.500000 -81.000000
-103.000000 -110.000000 -54.000000
-103.000000 -55.000000 -108.000000
-103.000000 -82.500000 -54.000000
-103.000000 -110.000000 -27.000000
-103.000000 -82.500000 -27.000000
-103.000000 -110.000000 0.000000
-103.000000 -55.000000 -54.000000
-103.000000 -55.000000 -81.000000
-103.000000 -27.500000 -81.000000
-103.000000 -27.500000 -108.000000
-103.000000 0.000000 -108.000000
-103.000000 -82.500000 0.000000
-103.000000 -110.000000 27.000000
-103.000000 -82.500000 27.000000
-103.000000 -110.000000 54.000000
-103.000000 -55.000000 0.000000
-103.000000 -82.500000 54.000000
-103.000000 -110.000000 81.000000
-103.000000 -82.500000 81.000000
-103.000000 -110.000000 108.000000
-103.000000 -55.000000 54.000000
-103.000000 -55.000000 27.000000
-103.000000 -27.500000 27.000000
-103.000000 -27.500000 0.000000
-103.000000 0.000000 0.000000
-103.000000 0.000000 -27.000000
-103.000000 27.500000 -27.000000
-103.000000 27.500000 -54.000000
-103.000000 55.000000 -54.000000
-103.000000 0.000000 -54.000000
-103.000000 55.000000 -81.000000
-103.000000 82.500000 -81.000000
-103.000000 82.500000 -108.000000
-103.000000 110.000000 -108.000000
-103.000000 55.000000 -108.000000
-103.000000 27.500000 -81.000000
-103.000000 27.500000 -108.000000
-103.000000 0.000000 -81.000000
-103.000000 -55.000000 -27.000000
-103.000000 -27.500000 -27.000000
-103.000000 -27.500000 -54.000000
-103.000000 82.500000 108.000000
-103.000000 110.000000 81.000000
-103.000000 110.000000 108.000000
-103.000000 82.500000 81.000000
-103.000000 110.000000 54.000000
-103.000000 55.000000 108.000000
-103.000000 82.500000 54.000000
-103.000000 110.000000 27.000000
-103.000000 82.500000 27.000000
-103.000000 110.000000 0.000000
-103.000000 55.000000 54.000000
-103.000000 55.000000 81.000000
-103.000000 27.500000 81.000000
-103.000000 27.500000 108.000000
-103.000000 0.000000 108.000000
-103.000000 82.500000 0.000000
-103.000000 110.000000 -27.000000
-103.000000 82.500000 -27.000000
-103.000000 110.000000 -54.000000
-103.000000 55.000000 0.000000
-103.000000 82.500000 -54.000000
-103.000000 110.000000 -81.000000
-103.000000 55.000000 -27.000000
-103.000000 27.500000 0.000000
-103.000000 0.000000 27.000000
-103.000000 -27.500000 54.000000
-103.000000 0.000000 54.000000
-103.000000 -55.000000 81.000000
-103.000000 -82.500000 108.000000
-103.000000 -55.000000 108.000000
-103.000000 -27.500000 81.000000
-103.000000 -27.500000 108.000000
-103.000000 0.000000 81.000000
-103.000000 55.000000 27.000000
-103.000000 27.500000 27.000000
-103.000000 27.500000 54.000000
103.000000 -110.000000 -81.000000
103.000000 -82.500000 -108.000000
103.000000 -110.000000 -108.000000
103.000000 -82.500000 -81.000000
103.000000 -55.000000 -108.000000
103.000000 -110.000000 -54.000000
103.000000 -55.000000 -81.000000
103.000000 -27.500000 -108.000000
103.000000 -27.500000 -81.000000
103.000000 0.000000 -108.000000
103.000000 -55.000000 -54.000000
103.000000 -82.500000 -54.000000
103.000000 -82.500000 -27.000000
103.000000 -110.000000 -27.000000
103.000000 -110.000000 0.000000
103.000000 0.000000 -81.000000
103.000000 27.500000 -108.000000
103.000000 27.500000 -81.000000
103.000000 55.000000 -108.000000
103.000000 0.000000 -54.000000
103.000000 55.000000 -81.000000
103.000000 82.500000 -108.000000
103.000000 82.500000 -81.000000
103.000000 110.000000 -108.000000
103.000000 55.000000 -54.000000
103.000000 27.500000 -54.000000
103.000000 27.500000 -27.000000
103.000000 0.000000 -27.000000
103.000000 0.000000 0.000000
103.000000 -27.500000 0.000000
103.000000 -27.500000 27.000000
103.000000 -55.000000 27.000000
103.000000 -55.000000 54.000000
103.000000 -55.000000 0.000000
103.000000 -82.500000 54.000000
103.000000 -82.500000 81.000000
103.000000 -110.000000 81.000000
103.000000 -110.000000 108.000000
103.000000 -110.000000 54.000000
103.000000 -82.500000 27.000000
103.000000 -110.000000 27.000000
103.000000 -82.500000 0.000000
103.000000 -27.500000 -54.000000
103.000000 -27.500000 -27.000000
103.000000 -55.000000 -27.000000
103.000000 110.000000 81.000000
103.000000 82.500000 108.000000
103.000000 110.000000 108.000000
103.000000 82.500000 81.000000
103.000000 55.000000 108.000000
103.000000 110.000000 54.000000
103.000000 55.000000 81.000000
103.000000 27.500000 108.000000
103.000000 27.500000 81.000000
103.000000 0.000000 108.000000
103.000000 55.000000 54.000000
103.000000 82.500000 54.000000
103.000000 82.500000 27.000000
103.000000 110.000000 27.000000
103.000000 110.000000 0.000000
103.000000 0.000000 81.000000
103.000000 -27.500000 108.000000
103.000000 -27.500000 81.000000
103.000000 -55.000000 108.000000
103.000000 0.000000 54.000000
103.000000 -55.000000 81.000000
103.000000 -82.500000 108.000000
103.000000 -27.500000 54.000000
103.000000 0.000000 27.000000
103.000000 27.500000 0.000000
103.000000 55.000000 -27.000000
103.000000 55.000000 0.000000
103.000000 82.500000 -54.000000
103.000000 110.000000 -81.000000
103.000000 110.000000 -54.000000
103.000000 82.500000 -27.000000
103.000000 110.000000 -27.000000
103.000000 82.500000 0.000000
103.000000 27.500000 54.000000
103.000000 27.500000 27.000000
103.000000 55.000000 27.000000
-77.250000 -110.000000 -108.000000
-77.250000 -110.000000 -81.000000
-51.500000 -110.000000 -108.000000
-51.500000 -110.000000 -81.000000
-25.750000 -110.000000 -108.000000
-25.750000 -110.000000 -81.000000
0.000000 -110.000000 -108.000000
-51.500000 -110.000000 -54.000000
-77.250000 -110.000000 -54.000000
-77.250000 -110.000000 -27.000000
0.000000 -110.000000 -81.000000
25.750000 -110.000000 -108.000000
25.750000 -110.000000 -81.000000
51.500000 -110.000000 -108.000000
0.000000 -110.000000 -54.000000
51.500000 -110.000000 -81.000000
77.250000 -110.000000 -108.000000
77.250000 -110.000000 -81.000000
51.500000 -110.000000 -54.000000
25.750000 -110.000000 -54.000000
25.750000 -110.000000 -27.000000
0.000000 -110.000000 -27.000000
0.000000 -110.000000 0.000000
-25.750000 -110.000000 0.000000
-25.750000 -110.000000 27.000000
-51.500000 -110.000000 27.000000
-51.500000 -110.000000 54.000000
-51.500000 -110.000000 0.000000
-77.250000 -110.000000 54.000000
-77.250000 -110.000000 81.000000
-77.250000 -110.000000 27.000000
-77.250000 -110.000000 0.000000
-25.750000 -110.000000 -54.000000
-25.750000 -110.000000 -27.000000
-51.500000 -110.000000 -27.000000
77.250000 -110.000000 108.000000
77.250000 -110.000000 81.000000
51.500000 -110.000000 108.000000
51.500000 -110.000000 81.000000
25.750000 -110.000000 108.000000
25.750000 -110.000000 81.000000
0.000000 -110.000000 108.000000
51.500000 -110.000000 54.000000
77.250000 -110.000000 54.000000
77.250000 -110.000000 27.000000
0.000000 -110.000000 81.000000
-25.750000 -110.000000 108.000000
-25.750000 -110.000000 81.000000
-51.500000 -110.000000 108.000000
0.000000 -110.000000 54.000000
-51.500000 -110.000000 81.000000
-77.250000 -110.000000 108.000000
-25.750000 -110.000000 54.000000
0.000000 -110.000000 27.000000
25.750000 -110.000000 0.000000
51.500000 -110.000000 -27.000000
51.500000 -110.000000 0.000000
77.250000 -110.000000 -54.000000
77.250000 -110.000000 -27.000000
77.250000 -110.000000 0.000000
25.750000 -110.000000 54.000000
25.750000 -110.000000 27.000000
51.500000 -110.000000 27.000000
-77.250000 110.000000 -108.000000
-77.250000 110.000000 -81.000000
-51.500000 110.000000 -108.000000
-77.250000 110.000000 -54.000000
-77.250000 110.000000 -27.000000
-51.500000 110.000000 -54.000000
-51.500000 110.000000 -81.000000
-25.750000 110.000000 -81.000000
-25.750000 110.000000 -108.000000
0.000000 110.000000 -108.000000
-77.250000 110.000000 0.000000
-77.250000 110.000000 27.000000
-51.500000 110.000000 0.000000
-77.250000 110.000000 54.000000
-77.250000 110.000000 81.000000
-51.500000 110.000000 54.000000
-51.500000 110.000000 27.000000
-25.750000 110.000000 27.000000
-25.750000 110.000000 0.000000
0.000000 110.000000 0.000000
0.000000 110.000000 -27.000000
25.750000 110.000000 -27.000000
25.750000 110.000000 -54.000000
51.500000 110.000000 -54.000000
0.000000 110.000000 -54.000000
51.500000 110.000000 -81.000000
77.250000 110.000000 -81.000000
77.250000 110.000000 -108.000000
51.500000 110.000000 -108.000000
25.750000 110.000000 -81.000000
25.750000 110.000000 -108.000000
0.000000 110.000000 -81.000000
-51.500000 110.000000 -27.000000
-25.750000 110.000000 -27.000000
-25.750000 110.000000 -54.000000
77.250000 110.000000 108.000000
77.250000 110.000000 81.000000
51.500000 110.000000 108.000000
77.250000 110.000000 54.000000
77.250000 110.000000 27.000000
51.500000 110.000000 54.000000
51.500000 110.000000 81.000000
25.750000 110.000000 81.000000
25.750000 110.000000 108.000000
0.000000 110.000000 108.000000
77.250000 110.000000 0.000000
77.250000 110.000000 -27.000000
51.500000 110.000000 0.000000
77.250000 110.000000 -54.000000
51.500000 110.000000 -27.000000
25.750000 110.000000 0.000000
0.000000 110.000000 27.000000
-25.750000 110.000000 54.000000
0.000000 110.000000 54.000000
-51.500000 110.000000 81.000000
-77.250000 110.000000 108.000000
-51.500000 110.000000 108.000000
-25.750000 110.000000 81.000000
-25.750000 110.000000 108.000000
0.000000 110.000000 81.000000
51.500000 110.000000 27.000000
25.750000 110.000000 27.000000
25.750000 110.000000 54.000000
-77.250000 -82.500000 -108.000000
-77.250000 -55.000000 -108.000000
-77.250000 -27.500000 -108.000000
-51.500000 -55.000000 -108.000000
-51.500000 -82.500000 -108.000000
-25.750000 -82.500000 -108.000000
-77.250000 0.000000 -108.000000
-77.250000 27.500000 -108.000000
-51.500000 0.000000 -108.000000
-77.250000 55.000000 -108.000000
-77.250000 82.500000 -108.000000
-51.500000 55.000000 -108.000000
-51.500000 27.500000 -108.000000
-25.750000 27.500000 -108.000000
-25.750000 0.000000 -108.000000
0.000000 0.000000 -108.000000
0.000000 -27.500000 -108.000000
25.750000 -27.500000 -108.000000
25.750000 -55.000000 -108.000000
51.500000 -55.000000 -108.000000
0.000000 -55.000000 -108.000000
51.500000 -82.500000 -108.000000
77.250000 -82.500000 -108.000000
25.750000 -82.500000 -108.000000
0.000000 -82.500000 -108.000000
-51.500000 -27.500000 -108.000000
-25.750000 -27.500000 -108.000000
-25.750000 -55.000000 -108.000000
77.250000 82.500000 -108.000000
77.250000 55.000000 -108.000000
77.250000 27.500000 -108.000000
51.500000 55.000000 -108.000000
51.500000 82.500000 -108.000000
25.750000 82.500000 -108.000000
77.250000 0.000000 -108.000000
77.250000 -27.500000 -108.000000
51.500000 0.000000 -108.000000
77.250000 -55.000000 -108.000000
51.500000 -27.500000 -108.000000
25.750000 0.000000 -108.000000
0.000000 27.500000 -108.000000
-25.750000 55.000000 -108.000000
0.000000 55.000000 -108.000000
-51.500000 82.500000 -108.000000
-25.750000 82.500000 -108.000000
0.000000 82.500000 -108.000000
51.500000 27.500000 -108.000000
25.750000 27.500000 -108.000000
25.750000 55.000000 -108.000000
-77.250000 -82.500000 108.000000
-51.500000 -82.500000 108.000000
-25.750000 -82.500000 108.000000
-51.500000 -55.000000 108.000000
-77.250000 -55.000000 108.000000
-77.250000 -27.500000 108.000000
0.000000 -82.500000 108.000000
25.750000 -82.500000 108.000000
0.000000 -55.000000 108.000000
51.500000 -82.500000 108.000000
77.250000 -82.500000 108.000000
51.500000 -55.000000 108.000000
25.750000 -55.000000 108.000000
25.750000 -27.500000 108.000000
0.000000 -27.500000 108.000000
0.000000 0.000000 108.000000
-25.750000 0.000000 108.000000
-25.750000 27.500000 108.000000
-51.500000 27.500000 108.000000
-51.500000 55.000000 108.000000
-51.500000 0.000000 108.000000
-77.250000 55.000000 108.000000
-77.250000 82.500000 108.000000
-77.250000 27.500000 108.000000
-77.250000 0.000000 108.000000
-25.750000 -55.000000 108.000000
-25.750000 -27.500000 108.000000
-51.500000 -27.500000 108.000000
77.250000 82.500000 108.000000
51.500000 82.500000 108.000000
25.750000 82.500000 108.000000
51.500000 55.000000 108.000000
77.250000 55.000000 108.000000
77.250000 27.500000 108.000000
0.000000 82.500000 108.000000
-25.750000 82.500000 108.000000
0.000000 55.000000 108.000000
-51.500000 82.500000 108.000000
-25.750000 55.000000 108.000000
0.000000 27.500000 108.000000
25.750000 0.000000 108.000000
51.500000 -27.500000 108.000000
51.500000 0.000000 108.000000
77.250000 -55.000000 108.000000
77.250000 -27.500000 108.000000
77.250000 0.000000 108.000000
25.750000 55.000000 108.000000
25.750000 27.500000 108.000000
51.500000 27.500000 108.000000
