-97.500000 -73.875000 -106.500000
-97.500000 -98.500000 -79.875000
-97.500000 -98.500000 -106.500000
-97.500000 -73.875000 -79.875000
-97.500000 -98.500000 -53.250000
-97.500000 -49.250000 -106.500000
-97.500000 -73.875000 -53.250000
-97.500000 -98.500000 -26.625000
-97.500000 -73.875000 -26.625000
-97.500000 -98.500000 0.000000
-97.500000 -49.250000 -53.250000
-97.500000 -49.250000 -79.875000
-97.500000 -24.625000 -79.875000
-97.500000 -24.625000 -106.500000
-97.500000 0.000000 -106.500000
-97.500000 -73.875000 0.000000
-97.500000 -98.500000 26.625000
-97.500000 -73.875000 26.625000
-97.500000 -98.500000 53.250000
-97.500000 -49.250000 0.000000
-97.500000 -73.875000 53.250000
-97.500000 -98.500000 79.875000
-97.500000 -73.875000 79.875000
-97.500000 -98.500000 106.500000
-97.500000 -49.250000 53.250000
-97.500000 -49.250000 26.625000
-97.500000 -24.625000 26.625000
-97.500000 -24.625000 0.000000
-97.500000 0.000000 0.000000
-97.500000 0.000000 -26.625000
-97.500000 24.625000 -26.625000
-97.500000 24.625000 -53.250000
-97.500000 49.250000 -53.250000
-97.500000 0.000000 -53.250000
-97.500000 49.250000 -79.875000
-97.500000 73.875000 -79.875000
-97.500000 73.875000 -106.500000
-97.500000 98.500000 -106.500000
-97.500000 49.250000 -106.500000
-97.500000 24.625000 -79.875000
-97.500000 24.625000 -106.500000
-97.500000 0.000000 -79.875000
-97.500000 -49.250000 -26.625000
-97.500000 -24.625000 -26.625000
-97.500000 -24.625000 -53.250000
-97.500000 73.875000 106.500000
-97.500000 98.500000 79.875000
-97.500000 98.500000 106.500000
-97.500000 73.875000 79.875000
-97.500000 98.500000 53.250000
-97.500000 49.250000 106.500000
-97.500000 73.875000 53.250000
-97.500000 98.500000 26.625000
-97.500000 73.875000 26.625000
-97.500000 98.500000 0.000000
-97.500000 49.250000 53.250000
-97.500000 49.250000 79.875000
-97.500000 24.625000 79.875000
-97.500000 24.625000 106.500000
-97.500000 0.000000 106.500000
-97.500000 73.875000 0.000000
-97.500000 98.500000 -26.625000
-97.500000 73.875000 -26.625000
-97.500000 98.500000 -53.250000
-97.500000 49.250000 0.000000
-97.500000 73.875000 -53.250000
-97.500000 98.500000 -79.875000
-97.500000 49.250000 -26.625000
-97.500000 24.625000 0.000000
-97.500000 0.000000 26.625000
-97.500000 -24.625000 53.250000
-97.500000 0.000000 53.250000
-97.500000 -49.250000 79.875000
-97.500000 -73.875000 106.500000
-97.500000 -49.250000 106.500000
-97.500000 -24.625000 79.875000
-97.500000 -24.625000 106.500000
-97.500000 0.000000 79.875000
-97.500000 49.250000 26.625000
-97.500000 24.625000 26.625000
-97.500000 24.625000 53.250000
97.500000 -98.500000 -79.875000
97.500000 -73.875000 -106.500000
97.500000 -98.500000 -106.500000
97.500000 -73.875000 -79.875000
97.500000 -49.250000 -106.500000
97.500000 -98.500000 -53.250000
97.500000 -49.250000 -79.875000
97.500000 -24.625000 -106.500000
97.500000 -24.625000 -79.875000
97.500000 0.000000 -106.500000
97.500000 -49.250000 -53.250000
97.500000 -73.875000 -53.250000
97.500000 -73.875000 -26.625000
97.500000 -98.500000 -26.625000
97.500000 -98.500000 0.000000
97.500000 0.000000 -79.875000
97.500000 24.625000 -106.500000
97.500000 24.625000 -79.875000
97.500000 49.250000 -106.500000
97.500000 0.000000 -53.250000
97.500000 49.250000 -79.875000
97.500000 73.875000 -106.500000
97.500000 73.875000 -79.875000
97.500000 98.500000 -106.500000
97.500000 49.250000 -53.250000
97.500000 24.625000 -53.250000
97.500000 24.625000 -26.625000
97.500000 0.000000 -26.625000
97.500000 0.000000 0.000000
97.500000 -24.625000 0.000000
97.500000 -24.625000 26.625000
97.500000 -49.250000 26.625000
97.500000 -49.250000 53.250000
97.500000 -49.250000 0.000000
97.500000 -73.875000 53.250000
97.500000 -73.875000 79.875000
97.500000 -98.500000 79.875000
97.500000 -98.500000 106.500000
97.500000 -98.500000 53.250000
97.500000 -73.875000 26.625000
97.500000 -98.500000 26.625000
97.500000 -73.875000 0.000000
97.500000 -24.625000 -53.250000
97.500000 -24.625000 -26.625000
97.500000 -49.250000 -26.625000
97.500000 98.500000 79.875000
97.500000 73.875000 106.500000
97.500000 98.500000 106.500000
97.500000 73.875000 79.875000
97.500000 49.250000 106.500000
97.500000 98.500000 53.250000
97.500000 49.250000 79.875000
97.500000 24.625000 106.500000
97.500000 24.625000 79.875000
97.500000 0.000000 106.500000
97.500000 49.250000 53.250000
97.500000 73.875000 53.250000
97.500000 73.875000 26.625000
97.500000 98.500000 26.625000
97.500000 98.500000 0.000000
97.500000 0.000000 79.875000
97.500000 -24.625000 106.500000
97.500000 -24.625000 79.875000
97.500000 -49.250000 106.500000
97.500000 0.000000 53.250000
97.500000 -49.250000 79.875000
97.500000 -73.875000 106.500000
97.500000 -24.625000 53.250000
97.500000 0.000000 26.625000
97.500000 24.625000 0.000000
97.500000 49.250000 -26.625000
97.500000 49.250000 0.000000
97.500000 73.875000 -53.250000
97.500000 98.500000 -79.875000
97.500000 98.500000 -53.250000
97.500000 73.875000 -26.625000
97.500000 98.500000 -26.625000
97.500000 73.875000 0.000000
97.500000 24.625000 53.250000
97.500000 24.625000 26.625000
97.500000 49.250000 26.625000
-73.125000 -98.500000 -106.500000
-73.125000 -98.500000 -79.875000
-48.750000 -98.500000 -106.500000
-48.750000 -98.500000 -79.875000
-24.375000 -98.500000 -106.500000
-24.375000 -98.500000 -79.875000
0.000000 -98.500000 -106.500000
-48.750000 -98.500000 -53.250000
-73.125000 -98.500000 -53.250000
-73.125000 -98.500000 -26.625000
0.000000 -98.500000 -79.875000
24.375000 -98.500000 -106.500000
24.375000 -98.500000 -79.875000
48.750000 -98.500000 -106.500000
0.000000 -98.500000 -53.250000
48.750000 -98.500000 -79.875000
73.125000 -98.500000 -106.500000
73.125000 -98.500000 -79.875000
48.750000 -98.500000 -53.250000
24.375000 -98.500000 -53.250000
24.375000 -98.500000 -26.625000
0.000000 -98.500000 -26.625000
0.000000 -98.500000 0.000000
-24.375000 -98.500000 0.000000
-24.375000 -98.500000 26.625000
-48.750000 -98.500000 26.625000
-48.750000 -98.500000 53.250000
-48.750000 -98.500000 0.000000
-73.125000 -98.500000 53.250000
-73.125000 -98.500000 79.875000
-73.125000 -98.500000 26.625000
-73.125000 -98.500000 0.000000
-24.375000 -98.500000 -53.250000
-24.375000 -98.500000 -26.625000
-48.750000 -98.500000 -26.625000
73.125000 -98.500000 106.500000
73.125000 -98.500000 79.875000
48.750000 -98.500000 106.500000
48.750000 -98.500000 79.875000
24.375000 -98.500000 106.500000
24.375000 -98.500000 79.875000
0.000000 -98.500000 106.500000
48.750000 -98.500000 53.250000
73.125000 -98.500000 53.250000
73.125000 -98.500000 26.625000
0.000000 -98.500000 79.875000
-24.375000 -98.500000 106.500000
-24.375000 -98.500000 79.875000
-48.750000 -98.500000 106.500000
0.000000 -98.500000 53.250000
-48.750000 -98.500000 79.875000
-73.125000 -98.500000 106.500000
-24.375000 -98.500000 53.250000
0.000000 -98.500000 26.625000
24.375000 -98.500000 0.000000
48.750000 -98.500000 -26.625000
48.750000 -98.500000 0.000000
73.125000 -98.500000 -53.250000
73.125000 -98.500000 -26.625000
73.125000 -98.500000 0.000000
24.375000 -98.500000 53.250000
24.375000 -98.500000 26.625000
48.750000 -98.500000 26.625000
-73.125000 98.500000 -106.500000
-73.125000 98.500000 -79.875000
-48.750000 98.500000 -106.500000
-73.125000 98.500000 -53.250000
-73.125000 98.500000 -26.625000
-48.750000 98.500000 -53.250000
-48.750000 98.500000 -79.875000
-24.375000 98.500000 -79.875000
-24.375000 98.500000 -106.500000
0.000000 98.500000 -106.500000
-73.125000 98.500000 0.000000
-73.125000 98.500000 26.625000
-48.750000 98.500000 0.000000
-73.125000 98.500000 53.250000
-73.125000 98.500000 79.875000
-48.750000 98.500000 53.250000
-48.750000 98.500000 26.625000
-24.375000 98.500000 26.625000
-24.375000 98.500000 0.000000
0.000000 98.500000 0.000000
0.000000 98.500000 -26.625000
24.375000 98.500000 -26.625000
24.375000 98.500000 -53.250000
48.750000 98.500000 -53.250000
0.000000 98.500000 -53.250000
48.750000 98.500000 -79.875000
73.125000 98.500000 -79.875000
73.125000 98.500000 -106.500000
48.750000 98.500000 -106.500000
24.375000 98.500000 -79.875000
24.375000 98.500000 -106.500000
0.000000 98.500000 -79.875000
-48.750000 98.500000 -26.625000
-24.375000 98.500000 -26.625000
-24.375000 98.500000 -53.250000
73.125000 98.500000 106.500000
73.125000 98.500000 79.875000
48.750000 98.500000 106.500000
73.125000 98.500000 53.250000
73.125000 98.500000 26.625000
48.750000 98.500000 53.250000
48.750000 98.500000 79.875000
24.375000 98.500000 79.875000
24.375000 98.500000 106.500000
0.000000 98.500000 106.500000
73.125000 98.500000 0.000000
73.125000 98.500000 -26.625000
48.750000 98.500000 0.000000
73.125000 98.500000 -53.250000
48.750000 98.500000 -26.625000
24.375000 98.500000 0.000000
0.000000 98.500000 26.625000
-24.375000 98.500000 53.250000
0.000000 98.500000 53.250000
-48.750000 98.500000 79.875000
-73.125000 98.500000 106.500000
-48.750000 98.500000 106.500000
-24.375000 98.500000 79.875000
-24.375000 98.500000 106.500000
0.000000 98.500000 79.875000
48.750000 98.500000 26.625000
24.375000 98.500000 26.625000
24.375000 98.500000 53.250000
-73.125000 -73.875000 -106.500000
-73.125000 -49.250000 -106.500000
-73.125000 -24.625000 -106.500000
-48.750000 -49.250000 -106.500000
-48.750000 -73.875000 -106.500000
-24.375000 -73.875000 -106.500000
-73.125000 0.000000 -106.500000
-73.125000 24.625000 -106.500000
-48.750000 0.000000 -106.500000
-73.125000 49.250000 -106.500000
-73.125000 73.875000 -106.500000
-48.750000 49.250000 -106.500000
-48.750000 24.625000 -106.500000
-24.375000 24.625000 -106.500000
-24.375000 0.000000 -106.500000
0.000000 0.000000 -106.500000
0.000000 -24.625000 -106.500000
24.375000 -24.625000 -106.500000
24.375000 -49.250000 -106.500000
48.750000 -49.250000 -106.500000
0.000000 -49.250000 -106.500000
48.750000 -73.875000 -106.500000
73.125000 -73.875000 -106.500000
24.375000 -73.875000 -106.500000
0.000000 -73.875000 -106.500000
-48.750000 -24.625000 -106.500000
-24.375000 -24.625000 -106.500000
-24.375000 -49.250000 -106.500000
73.125000 73.875000 -106.500000
73.125000 49.250000 -106.500000
73.125000 24.625000 -106.500000
48.750000 49.250000 -106.500000
48.750000 73.875000 -106.500000
24.375000 73.875000 -106.500000
73.125000 0.000000 -106.500000
73.125000 -24.625000 -106.500000
48.750000 0.000000 -106.500000
73.125000 -49.250000 -106.500000
48.750000 -24.625000 -106.500000
24.375000 0.000000 -106.500000
0.000000 24.625000 -106.500000
-24.375000 49.250000 -106.500000
0.000000 49.250000 -106.500000
-48.750000 73.875000 -106.500000
-24.375000 73.875000 -106.500000
0.000000 73.875000 -106.500000
48.750000 24.625000 -106.500000
24.375000 24.625000 -106.500000
24.375000 49.250000 -106.500000
-73.125000 -73.875000 106.500000
-48.750000 -73.875000 106.500000
-24.375000 -73.875000 106.500000
-48.750000 -49.250000 106.500000
-73.125000 -49.250000 106.500000
-73.125000 -24.625000 106.500000
0.000000 -73.875000 106.500000
24.375000 -73.875000 106.500000
0.000000 -49.250000 106.500000
48.750000 -73.875000 106.500000
73.125000 -73.875000 106.500000
48.750000 -49.250000 106.500000
24.375000 -49.250000 106.500000
24.375000 -24.625000 106.500000
0.000000 -24.625000 106.500000
0.000000 0.000000 106.500000
-24.375000 0.000000 106.500000
-24.375000 24.625000 106.500000
-48.750000 24.625000 106.500000
-48.750000 49.250000 106.500000
-48.750000 0.000000 106.500000
-73.125000 49.250000 106.500000
-73.125000 73.875000 106.500000
-73.125000 24.625000 106.500000
-73.125000 0.000000 106.500000
-24.375000 -49.250000 106.500000
-24.375000 -24.625000 106.500000
-48.750000 -24.625000 106.500000
73.125000 73.875000 106.500000
48.750000 73.875000 106.500000
24.375000 73.875000 106.500000
48.750000 49.250000 106.500000
73.125000 49.250000 106.500000
73.125000 24.625000 106.500000
0.000000 73.875000 106.500000
-24.375000 73.875000 106.500000
0.000000 49.250000 106.500000
-48.750000 73.875000 106.500000
-24.375000 49.250000 106.500000
0.000000 24.625000 106.500000
24.375000 0.000000 106.500000
48.750000 -24.625000 106.500000
48.750000 0.000000 106.500000
73.125000 -49.250000 106.500000
73.125000 -24.625000 106.500000
73.125000 0.000000 106.500000
24.375000 49.250000 106.500000
24.375000 24.625000 106.500000
48.750000 24.625000 106.500000
