-97.000000 -71.250000 -90.000000
-97.000000 -95.000000 -67.500000
-97.000000 -95.000000 -90.000000
-97.000000 -71.250000 -67.500000
-97.000000 -95.000000 -45.000000
-97.000000 -47.500000 -90.000000
-97.000000 -71.250000 -45.000000
-97.000000 -95.000000 -22.500000
-97.000000 -71.250000 -22.500000
-97.000000 -95.000000 0.000000
-97.000000 -47.500000 -45.000000
-97.000000 -47.500000 -67.500000
-97.000000 -23.750000 -67.500000
-97.000000 -23.750000 -90.000000
-97.000000 0.000000 -90.000000
-97.000000 -71.250000 0.000000
-97.000000 -95.000000 22.500000
-97.000000 -71.250000 22.500000
-97.000000 -95.000000 45.000000
-97.000000 -47.500000 0.000000
-97.000000 -71.250000 45.000000
-97.000000 -95.000000 67.500000
-97.000000 -71.250000 67.500000
-97.000000 -95.000000 90.000000
-97.000000 -47.500000 45.000000
-97.000000 -47.500000 22.500000
-97.000000 -23.750000 22.500000
-97.000000 -23.750000 0.000000
-97.000000 0.000000 0.000000
-97.000000 0.000000 -22.500000
-97.000000 23.750000 -22.500000
-97.000000 23.750000 -45.000000
-97.000000 47.500000 -45.000000
-97.000000 0.000000 -45.000000
-97.000000 47.500000 -67.500000
-97.000000 71.250000 -67.500000
-97.000000 71.250000 -90.000000
-97.000000 95.000000 -90.000000
-97.000000 47.500000 -90.000000
-97.000000 23.750000 -67.500000
-97.000000 23.750000 -90.000000
-97.000000 0.000000 -67.500000
-97.000000 -47.500000 -22.500000
-97.000000 -23.750000 -22.500000
-97.000000 -23.750000 -45.000000
-97.000000 71.250000 90.000000
-97.000000 95.000000 67.500000
-97.000000 95.000000 90.000000
-97.000000 71.250000 67.500000
-97.000000 95.000000 45.000000
-97.000000 47.500000 90.000000
-97.000000 71.250000 45.000000
-97.000000 95.000000 22.500000
-97.000000 71.250000 22.500000
-97.000000 95.000000 0.000000
-97.000000 47.500000 45.000000
-97.000000 47.500000 67.500000
-97.000000 23.750000 67.500000
-97.000000 23.750000 90.000000
-97.000000 0.000000 90.000000
-97.000000 71.250000 0.000000
-97.000000 95.000000 -22.500000
-97.000000 71.250000 -22.500000
-97.000000 95.000000 -45.000000
-97.000000 47.500000 0.000000
-97.000000 71.250000 -45.000000
-97.000000 95.000000 -67.500000
-97.000000 47.500000 -22.500000
-97.000000 23.750000 0.000000
-97.000000 0.000000 22.500000
-97.000000 -23.750000 45.000000
-97.000000 0.000000 45.000000
-97.000000 -47.500000 67.500000
-97.000000 -71.250000 90.000000
-97.000000 -47.500000 90.000000
-97.000000 -23.750000 67.500000
-97.000000 -23.750000 90.000000
-97.000000 0.000000 67.500000
-97.000000 47.500000 22.500000
-97.000000 23.750000 22.500000
-97.000000 23.750000 45.000000
97.000000 -95.000000 -67.500000
97.000000 -71.250000 -90.000000
97.000000 -95.000000 -90.000000
97.000000 -71.250000 -67.500000
97.000000 -47.500000 -90.000000
97.000000 -95.000000 -45.000000
97.000000 -47.500000 -67.500000
97.000000 -23.750000 -90.000000
97.000000 -23.750000 -67.500000
97.000000 0.000000 -90.000000
97.000000 -47.500000 -45.000000
97.000000 -71.250000 -45.000000
97.000000 -71.250000 -22.500000
97.000000 -95.000000 -22.500000
97.000000 -95.000000 0.000000
97.000000 0.000000 -67.500000
97.000000 23.750000 -90.000000
97.000000 23.750000 -67.500000
97.000000 47.500000 -90.000000
97.000000 0.000000 -45.000000
97.000000 47.500000 -67.500000
97.000000 71.250000 -90.000000
97.000000 71.250000 -67.500000
97.000000 95.000000 -90.000000
97.000000 47.500000 -45.000000
97.000000 23.750000 -45.000000
97.000000 23.750000 -22.500000
97.000000 0.000000 -22.500000
97.000000 0.000000 0.000000
97.000000 -23.750000 0.000000
97.000000 -23.750000 22.500000
97.000000 -47.500000 22.500000
97.000000 -47.500000 45.000000
97.000000 -47.500000 0.000000
97.000000 -71.250000 45.000000
97.000000 -71.250000 67.500000
97.000000 -95.000000 67.500000
97.000000 -95.000000 90.000000
97.000000 -95.000000 45.000000
97.000000 -71.250000 22.500000
97.000000 -95.000000 22.500000
97.000000 -71.250000 0.000000
97.000000 -23.750000 -45.000000
97.000000 -23.750000 -22.500000
97.000000 -47.500000 -22.500000
97.000000 95.000000 67.500000
97.000000 71.250000 90.000000
97.000000 95.000000 90.000000
97.000000 71.250000 67.500000
97.000000 47.500000 90.000000
97.000000 95.000000 45.000000
97.000000 47.500000 67.500000
97.000000 23.750000 90.000000
97.000000 23.750000 67.500000
97.000000 0.000000 90.000000
97.000000 47.500000 45.000000
97.000000 71.250000 45.000000
97.000000 71.250000 22.500000
97.000000 95.000000 22.500000
97.000000 95.000000 0.000000
97.000000 0.000000 67.500000
97.000000 -23.750000 90.000000
97.000000 -23.750000 67.500000
97.000000 -47.500000 90.000000
97.000000 0.000000 45.000000
97.000000 -47.500000 67.500000
97.000000 -71.250000 90.000000
97.000000 -23.750000 45.000000
97.000000 0.000000 22.500000
97.000000 23.750000 0.000000
97.000000 47.500000 -22.500000
97.000000 47.500000 0.000000
97.000000 71.250000 -45.000000
97.000000 95.000000 -67.500000
97.000000 95.000000 -45.000000
97.000000 71.250000 -22.500000
97.000000 95.000000 -22.500000
97.000000 71.250000 0.000000
97.000000 23.750000 45.000000
97.000000 23.750000 22.500000
97.000000 47.500000 22.500000
-72.750000 -95.000000 -90.000000
-72.750000 -95.000000 -67.500000
-48.500000 -95.000000 -90.000000
-48.500000 -95.000000 -67.500000
-24.250000 -95.000000 -90.000000
-24.250000 -95.000000 -67.500000
0.000000 -95.000000 -90.000000
-48.500000 -95.000000 -45.000000
-72.750000 -95.000000 -45.000000
-72.750000 -95.000000 -22.500000
0.000000 -95.000000 -67.500000
24.250000 -95.000000 -90.000000
24.250000 -95.000000 -67.500000
48.500000 -95.000000 -90.000000
0.000000 -95.000000 -45.000000
48.500000 -95.000000 -67.500000
72.750000 -95.000000 -90.000000
72.750000 -95.000000 -67.500000
48.500000 -95.000000 -45.000000
24.250000 -95.000000 -45.000000
24.250000 -95.000000 -22.500000
0.000000 -95.000000 -22.500000
0.000000 -95.000000 0.000000
-24.250000 -95.000000 0.000000
-24.250000 -95.000000 22.500000
-48.500000 -95.000000 22.500000
-48.500000 -95.000000 45.000000
-48.500000 -95.000000 0.000000
-72.750000 -95.000000 45.000000
-72.750000 -95.000000 67.500000
-72.750000 -95.000000 22.500000
-72.750000 -95.000000 0.000000
-24.250000 -95.000000 -45.000000
-24.250000 -95.000000 -22.500000
-48.500000 -95.000000 -22.500000
72.750000 -95.000000 90.000000
72.750000 -95.000000 67.500000
48.500000 -95.000000 90.000000
48.500000 -95.000000 67.500000
24.250000 -95.000000 90.000000
24.250000 -95.000000 67.500000
0.000000 -95.000000 90.000000
48.500000 -95.000000 45.000000
72.750000 -95.000000 45.000000
72.750000 -95.000000 22.500000
0.000000 -95.000000 67.500000
-24.250000 -95.000000 90.000000
-24.250000 -95.000000 67.500000
-48.500000 -95.000000 90.000000
0.000000 -95.000000 45.000000
-48.500000 -95.000000 67.500000
-72.750000 -95.000000 90.000000
-24.250000 -95.000000 45.000000
0.000000 -95.000000 22.500000
24.250000 -95.000000 0.000000
48.500000 -95.000000 -22.500000
48.500000 -95.000000 0.000000
72.750000 -95.000000 -45.000000
72.750000 -95.000000 -22.500000
72.750000 -95.000000 0.000000
24.250000 -95.000000 45.000000
24.250000 -95.000000 22.500000
48.500000 -95.000000 22.500000
-72.750000 95.000000 -90.000000
-72.750000 95.000000 -67.500000
-48.500000 95.000000 -90.000000
-72.750000 95.000000 -45.000000
-72.750000 95.000000 -22.500000
-48.500000 95.000000 -45.000000
-48.500000 95.000000 -67.500000
-24.250000 95.000000 -67.500000
-24.250000 95.000000 -90.000000
0.000000 95.000000 -90.000000
-72.750000 95.000000 0.000000
-72.750000 95.000000 22.500000
-48.500000 95.000000 0.000000
-72.750000 95.000000 45.000000
-72.750000 95.000000 67.500000
-48.500000 95.000000 45.000000
-48.500000 95.000000 22.500000
-24.250000 95.000000 22.500000
-24.250000 95.000000 0.000000
0.000000 95.000000 0.000000
0.000000 95.000000 -22.500000
24.250000 95.000000 -22.500000
24.250000 95.000000 -45.000000
48.500000 95.000000 -45.000000
0.000000 95.000000 -45.000000
48.500000 95.000000 -67.500000
72.750000 95.000000 -67.500000
72.750000 95.000000 -90.000000
48.500000 95.000000 -90.000000
24.250000 95.000000 -67.500000
24.250000 95.000000 -90.000000
0.000000 95.000000 -67.500000
-48.500000 95.000000 -22.500000
-24.250000 95.000000 -22.500000
-24.250000 95.000000 -45.000000
72.750000 95.000000 90.000000
72.750000 95.000000 67.500000
48.500000 95.000000 90.000000
72.750000 95.000000 45.000000
72.750000 95.000000 22.500000
48.500000 95.000000 45.000000
48.500000 95.000000 67.500000
24.250000 95.000000 67.500000
24.250000 95.000000 90.000000
0.000000 95.000000 90.000000
72.750000 95.000000 0.000000
72.750000 95.000000 -22.500000
48.500000 95.000000 0.000000
72.750000 95.000000 -45.000000
48.500000 95.000000 -22.500000
24.250000 95.000000 0.000000
0.000000 95.000000 22.500000
-24.250000 95.000000 45.000000
0.000000 95.000000 45.000000
-48.500000 95.000000 67.500000
-72.750000 95.000000 90.000000
-48.500000 95.000000 90.000000
-24.250000 95.000000 67.500000
-24.250000 95.000000 90.000000
0.000000 95.000000 67.500000
48.500000 95.000000 22.500000
24.250000 95.000000 22.500000
24.250000 95.000000 45.000000
-72.750000 -71.250000 -90.000000
-72.750000 -47.500000 -90.000000
-72.750000 -23.750000 -90.000000
-48.500000 -47.500000 -90.000000
-48.500000 -71.250000 -90.000000
-24.250000 -71.250000 -90.000000
-72.750000 0.000000 -90.000000
-72.750000 23.750000 -90.000000
-48.500000 0.000000 -90.000000
-72.750000 47.500000 -90.000000
-72.750000 71.250000 -90.000000
-48.500000 47.500000 -90.000000
-48.500000 23.750000 -90.000000
-24.250000 23.750000 -90.000000
-24.250000 0.000000 -90.000000
0.000000 0.000000 -90.000000
0.000000 -23.750000 -90.000000
24.250000 -23.750000 -90.000000
24.250000 -47.500000 -90.000000
48.500000 -47.500000 -90.000000
0.000000 -47.500000 -90.000000
48.500000 -71.250000 -90.000000
72.750000 -71.250000 -90.000000
24.250000 -71.250000 -90.000000
0.000000 -71.250000 -90.000000
-48.500000 -23.750000 -90.000000
-24.250000 -23.750000 -90.000000
-24.250000 -47.500000 -90.000000
72.750000 71.250000 -90.000000
72.750000 47.500000 -90.000000
72.750000 23.750000 -90.000000
48.500000 47.500000 -90.000000
48.500000 71.250000 -90.000000
24.250000 71.250000 -90.000000
72.750000 0.000000 -90.000000
72.750000 -23.750000 -90.000000
48.500000 0.000000 -90.000000
72.750000 -47.500000 -90.000000
48.500000 -23.750000 -90.000000
24.250000 0.000000 -90.000000
0.000000 23.750000 -90.000000
-24.250000 47.500000 -90.000000
0.000000 47.500000 -90.000000
-48.500000 71.250000 -90.000000
-24.250000 71.250000 -90.000000
0.000000 71.250000 -90.000000
48.500000 23.750000 -90.000000
24.250000 23.750000 -90.000000
24.250000 47.500000 -90.000000
-72.750000 -71.250000 90.000000
-48.500000 -71.250000 90.000000
-24.250000 -71.250000 90.000000
-48.500000 -47.500000 90.000000
-72.750000 -47.500000 90.000000
-72.750000 -23.750000 90.000000
0.000000 -71.250000 90.000000
24.250000 -71.250000 90.000000
0.000000 -47.500000 90.000000
48.500000 -71.250000 90.000000
72.750000 -71.250000 90.000000
48.500000 -47.500000 90.000000
24.250000 -47.500000 90.000000
24.250000 -23.750000 90.000000
0.000000 -23.750000 90.000000
0.000000 0.000000 90.000000
-24.250000 0.000000 90.000000
-24.250000 23.750000 90.000000
-48.500000 23.750000 90.000000
-48.500000 47.500000 90.000000
-48.500000 0.000000 90.000000
-72.750000 47.500000 90.000000
-72.750000 71.250000 90.000000
-72.750000 23.750000 90.000000
-72.750000 0.000000 90.000000
-24.250000 -47.500000 90.000000
-24.250000 -23.750000 90.000000
-48.500000 -23.750000 90.000000
72.750000 71.250000 90.000000
48.500000 71.250000 90.000000
24.250000 71.250000 90.000000
48.500000 47.500000 90.000000
72.750000 47.500000 90.000000
72.750000 23.750000 90.000000
0.000000 71.250000 90.000000
-24.250000 71.250000 90.000000
0.000000 47.500000 90.000000
-48.500000 71.250000 90.000000
-24.250000 47.500000 90.000000
0.000000 23.750000 90.000000
24.250000 0.000000 90.000000
48.500000 -23.750000 90.000000
48.500000 0.000000 90.000000
72.750000 -47.500000 90.000000
72.750000 -23.750000 90.000000
72.750000 0.000000 90.000000
24.250000 47.500000 90.000000
24.250000 23.750000 90.000000
48.500000 23.750000 90.000000
