-102.000000 -82.125000 -96.500000
-102.000000 -109.500000 -72.375000
-102.000000 -109.500000 -96.500000
-102.000000 -82.125000 -72.375000
-102.000000 -109.500000 -48.250000
-102.000000 -54.750000 -96.500000
-102.000000 -82.125000 -48.250000
-102.000000 -109.500000 -24.125000
-102.000000 -82.125000 -24.125000
-102.000000 -109.500000 0.000000
-102.000000 -54.750000 -48.250000
-102.000000 -54.750000 -72.375000
-102.000000 -27.375000 -72.375000
-102.000000 -27.375000 -96.500000
-102.000000 0.000000 -96.500000
-102.000000 -82.125000 0.000000
-102.000000 -109.500000 24.125000
-102.000000 -82.125000 24.125000
-102.000000 -109.500000 48.250000
-102.000000 -54.750000 0.000000
-102.000000 -82.125000 48.250000
-102.000000 -109.500000 72.375000
-102.000000 -82.125000 72.375000
-102.000000 -109.500000 96.500000
-102.000000 -54.750000 48.250000
-102.000000 -54.750000 24.125000
-102.000000 -27.375000 24.125000
-102.000000 -27.375000 0.000000
-102.000000 0.000000 0.000000
-102.000000 0.000000 -24.125000
-102.000000 27.375000 -24.125000
-102.000000 27.375000 -48.250000
-102.000000 54.750000 -48.250000
-102.000000 0.000000 -48.250000
-102.000000 54.750000 -72.375000
-102.000000 82.125000 -72.375000
-102.000000 82.125000 -96.500000
-102.000000 109.500000 -96.500000
-102.000000 54.750000 -96.500000
-102.000000 27.375000 -72.375000
-102.000000 27.375000 -96.500000
-102.000000 0.000000 -72.375000
-102.000000 -54.750000 -24.125000
-102.000000 -27.375000 -24.125000
-102.000000 -27.375000 -48.250000
-102.000000 82.125000 96.500000
-102.000000 109.500000 72.375000
-102.000000 109.500000 96.500000
-102.000000 82.125000 72.375000
-102.000000 109.500000 48.250000
-102.000000 54.750000 96.500000
-102.000000 82.125000 48.250000
-102.000000 109.500000 24.125000
-102.000000 82.125000 24.125000
-102.000000 109.500000 0.000000
-102.000000 54.750000 48.250000
-102.000000 54.750000 72.375000
-102.000000 27.375000 72.375000
-102.000000 27.375000 96.500000
-102.000000 0.000000 96.500000
-102.000000 82.125000 0.000000
-102.000000 109.500000 -24.125000
-102.000000 82.125000 -24.125000
-102.000000 109.500000 -48.250000
-102.000000 54.750000 0.000000
-102.000000 82.125000 -48.250000
-102.000000 109.500000 -72.375000
-102.000000 54.750000 -24.125000
-102.000000 27.375000 0.000000
-102.000000 0.000000 24.125000
-102.000000 -27.375000 48.250000
-102.000000 0.000000 48.250000
-102.000000 -54.750000 72.375000
-102.000000 -82.125000 96.500000
-102.000000 -54.750000 96.500000
-102.000000 -27.375000 72.375000
-102.000000 -27.375000 96.500000
-102.000000 0.000000 72.375000
-102.000000 54.750000 24.125000
-102.000000 27.375000 24.125000
-102.000000 27.375000 48.250000
102.000000 -109.500000 -72.375000
102.000000 -82.125000 -96.500000
102.000000 -109.500000 -96.500000
102.000000 -82.125000 -72.375000
102.000000 -54.750000 -96.500000
102.000000 -109.500000 -48.250000
102.000000 -54.750000 -72.375000
102.000000 -27.375000 -96.500000
102.000000 -27.375000 -72.375000
102.000000 0.000000 -96.500000
102.000000 -54.750000 -48.250000
102.000000 -82.125000 -48.250000
102.000000 -82.125000 -24.125000
102.000000 -109.500000 -24.125000
102.000000 -109.500000 0.000000
102.000000 0.000000 -72.375000
102.000000 27.375000 -96.500000
102.000000 27.375000 -72.375000
102.000000 54.750000 -96.500000
102.000000 0.000000 -48.250000
102.000000 54.750000 -72.375000
102.000000 82.125000 -96.500000
102.000000 82.125000 -72.375000
102.000000 109.500000 -96.500000
102.000000 54.750000 -48.250000
102.000000 27.375000 -48.250000
102.000000 27.375000 -24.125000
102.000000 0.000000 -24.125000
102.000000 0.000000 0.000000
102.000000 -27.375000 0.000000
102.000000 -27.375000 24.125000
102.000000 -54.750000 24.125000
102.000000 -54.750000 48.250000
102.000000 -54.750000 0.000000
102.000000 -82.125000 48.250000
102.000000 -82.125000 72.375000
102.000000 -109.500000 72.375000
102.000000 -109.500000 96.500000
102.000000 -109.500000 48.250000
102.000000 -82.125000 24.125000
102.000000 -109.500000 24.125000
102.000000 -82.125000 0.000000
102.000000 -27.375000 -48.250000
102.000000 -27.375000 -24.125000
102.000000 -54.750000 -24.125000
102.000000 109.500000 72.375000
102.000000 82.125000 96.500000
102.000000 109.500000 96.500000
102.000000 82.125000 72.375000
102.000000 54.750000 96.500000
102.000000 109.500000 48.250000
102.000000 54.750000 72.375000
102.000000 27.375000 96.500000
102.000000 27.375000 72.375000
102.000000 0.000000 96.500000
102.000000 54.750000 48.250000
102.000000 82.125000 48.250000
102.000000 82.125000 24.125000
102.000000 109.500000 24.125000
102.000000 109.500000 0.000000
102.000000 0.000000 72.375000
102.000000 -27.375000 96.500000
102.000000 -27.375000 72.375000
102.000000 -54.750000 96.500000
102.000000 0.000000 48.250000
102.000000 -54.750000 72.375000
102.000000 -82.125000 96.500000
102.000000 -27.375000 48.250000
102.000000 0.000000 24.125000
102.000000 27.375000 0.000000
102.000000 54.750000 -24.125000
102.000000 54.750000 0.000000
102.000000 82.125000 -48.250000
102.000000 109.500000 -72.375000
102.000000 109.500000 -48.250000
102.000000 82.125000 -24.125000
102.000000 109.500000 -24.125000
102.000000 82.125000 0.000000
102.000000 27.375000 48.250000
102.000000 27.375000 24.125000
102.000000 54.750000 24.125000
-76.500000 -109.500000 -96.500000
-76.500000 -109.500000 -72.375000
-51.000000 -109.500000 -96.500000
-51.000000 -109.500000 -72.375000
-25.500000 -109.500000 -96.500000
-25.500000 -109.500000 -72.375000
0.000000 -109.500000 -96.500000
-51.000000 -109.500000 -48.250000
-76.500000 -109.500000 -48.250000
-76.500000 -109.500000 -24.125000
0.000000 -109.500000 -72.375000
25.500000 -109.500000 -96.500000
25.500000 -109.500000 -72.375000
51.000000 -109.500000 -96.500000
0.000000 -109.500000 -48.250000
51.000000 -109.500000 -72.375000
76.500000 -109.500000 -96.500000
76.500000 -109.500000 -72.375000
51.000000 -109.500000 -48.250000
25.500000 -109.500000 -48.250000
25.500000 -109.500000 -24.125000
0.000000 -109.500000 -24.125000
0.000000 -109.500000 0.000000
-25.500000 -109.500000 0.000000
-25.500000 -109.500000 24.125000
-51.000000 -109.500000 24.125000
-51.000000 -109.500000 48.250000
-51.000000 -109.500000 0.000000
-76.500000 -109.500000 48.250000
-76.500000 -109.500000 72.375000
-76.500000 -109.500000 24.125000
-76.500000 -109.500000 0.000000
-25.500000 -109.500000 -48.250000
-25.500000 -109.500000 -24.125000
-51.000000 -109.500000 -24.125000
76.500000 -109.500000 96.500000
76.500000 -109.500000 72.375000
51.000000 -109.500000 96.500000
51.000000 -109.500000 72.375000
25.500000 -109.500000 96.500000
25.500000 -109.500000 72.375000
0.000000 -109.500000 96.500000
51.000000 -109.500000 48.250000
76.500000 -109.500000 48.250000
76.500000 -109.500000 24.125000
0.000000 -109.500000 72.375000
-25.500000 -109.500000 96.500000
-25.500000 -109.500000 72.375000
-51.000000 -109.500000 96.500000
0.000000 -109.500000 48.250000
-51.000000 -109.500000 72.375000
-76.500000 -109.500000 96.500000
-25.500000 -109.500000 48.250000
0.000000 -109.500000 24.125000
25.500000 -109.500000 0.000000
51.000000 -109.500000 -24.125000
51.000000 -109.500000 0.000000
76.500000 -109.500000 -48.250000
76.500000 -109.500000 -24.125000
76.500000 -109.500000 0.000000
25.500000 -109.500000 48.250000
25.500000 -109.500000 24.125000
51.000000 -109.500000 24.125000
-76.500000 109.500000 -96.500000
-76.500000 109.500000 -72.375000
-51.000000 109.500000 -96.500000
-76.500000 109.500000 -48.250000
-76.500000 109.500000 -24.125000
-51.000000 109.500000 -48.250000
-51.000000 109.500000 -72.375000
-25.500000 109.500000 -72.375000
-25.500000 109.500000 -96.500000
0.000000 109.500000 -96.500000
-76.500000 109.500000 0.000000
-76.500000 109.500000 24.125000
-51.000000 109.500000 0.000000
-76.500000 109.500000 48.250000
-76.500000 109.500000 72.375000
-51.000000 109.500000 48.250000
-51.000000 109.500000 24.125000
-25.500000 109.500000 24.125000
-25.500000 109.500000 0.000000
0.000000 109.500000 0.000000
0.000000 109.500000 -24.125000
25.500000 109.500000 -24.125000
25.500000 109.500000 -48.250000
51.000000 109.500000 -48.250000
0.000000 109.500000 -48.250000
51.000000 109.500000 -72.375000
76.500000 109.500000 -72.375000
76.500000 109.500000 -96.500000
51.000000 109.500000 -96.500000
25.500000 109.500000 -72.375000
25.500000 109.500000 -96.500000
0.000000 109.500000 -72.375000
-51.000000 109.500000 -24.125000
-25.500000 109.500000 -24.125000
-25.500000 109.500000 -48.250000
76.500000 109.500000 96.500000
76.500000 109.500000 72.375000
51.000000 109.500000 96.500000
76.500000 109.500000 48.250000
76.500000 109.500000 24.125000
51.000000 109.500000 48.250000
51.000000 109.500000 72.375000
25.500000 109.500000 72.375000
25.500000 109.500000 96.500000
0.000000 109.500000 96.500000
76.500000 109.500000 0.000000
76.500000 109.500000 -24.125000
51.000000 109.500000 0.000000
76.500000 109.500000 -48.250000
51.000000 109.500000 -24.125000
25.500000 109.500000 0.000000
0.000000 109.500000 24.125000
-25.500000 109.500000 48.250000
0.000000 109.500000 48.250000
-51.000000 109.500000 72.375000
-76.500000 109.500000 96.500000
-51.000000 109.500000 96.500000
-25.500000 109.500000 72.375000
-25.500000 109.500000 96.500000
0.000000 109.500000 72.375000
51.000000 109.500000 24.125000
25.500000 109.500000 24.125000
25.500000 109.500000 48.250000
-76.500000 -82.125000 -96.500000
-76.500000 -54.750000 -96.500000
-76.500000 -27.375000 -96.500000
-51.000000 -54.750000 -96.500000
-51.000000 -82.125000 -96.500000
-25.500000 -82.125000 -96.500000
-76.500000 0.000000 -96.500000
-76.500000 27.375000 -96.500000
-51.000000 0.000000 -96.500000
-76.500000 54.750000 -96.500000
-76.500000 82.125000 -96.500000
-51.000000 54.750000 -96.500000
-51.000000 27.375000 -96.500000
-25.500000 27.375000 -96.500000
-25.500000 0.000000 -96.500000
0.000000 0.000000 -96.500000
0.000000 -27.375000 -96.500000
25.500000 -27.375000 -96.500000
25.500000 -54.750000 -96.500000
51.000000 -54.750000 -96.500000
0.000000 -54.750000 -96.500000
51.000000 -82.125000 -96.500000
76.500000 -82.125000 -96.500000
25.500000 -82.125000 -96.500000
0.000000 -82.125000 -96.500000
-51.000000 -27.375000 -96.500000
-25.500000 -27.375000 -96.500000
-25.500000 -54.750000 -96.500000
76.500000 82.125000 -96.500000
76.500000 54.750000 -96.500000
76.500000 27.375000 -96.500000
51.000000 54.750000 -96.500000
51.000000 82.125000 -96.500000
25.500000 82.125000 -96.500000
76.500000 0.000000 -96.500000
76.500000 -27.375000 -96.500000
51.000000 0.000000 -96.500000
76.500000 -54.750000 -96.500000
51.000000 -27.375000 -96.500000
25.500000 0.000000 -96.500000
0.000000 27.375000 -96.500000
-25.500000 54.750000 -96.500000
0.000000 54.750000 -96.500000
-51.000000 82.125000 -96.500000
-25.500000 82.125000 -96.500000
0.000000 82.125000 -96.500000
51.000000 27.375000 -96.500000
25.500000 27.375000 -96.500000
25.500000 54.750000 -96.500000
-76.500000 -82.125000 96.500000
-51.000000 -82.125000 96.500000
-25.500000 -82.125000 96.500000
-51.000000 -54.750000 96.500000
-76.500000 -54.750000 96.500000
-76.500000 -27.375000 96.500000
0.000000 -82.125000 96.500000
25.500000 -82.125000 96.500000
0.000000 -54.750000 96.500000
51.000000 -82.125000 96.500000
76.500000 -82.125000 96.500000
51.000000 -54.750000 96.500000
25.500000 -54.750000 96.500000
25.500000 -27.375000 96.500000
0.000000 -27.375000 96.500000
0.000000 0.000000 96.500000
-25.500000 0.000000 96.500000
-25.500000 27.375000 96.500000
-51.000000 27.375000 96.500000
-51.000000 54.750000 96.500000
-51.000000 0.000000 96.500000
-76.500000 54.750000 96.500000
-76.500000 82.125000 96.500000
-76.500000 27.375000 96.500000
-76.500000 0.000000 96.500000
-25.500000 -54.750000 96.500000
-25.500000 -27.375000 96.500000
-51.000000 -27.375000 96.500000
76.500000 82.125000 96.500000
51.000000 82.125000 96.500000
25.500000 82.125000 96.500000
51.000000 54.750000 96.500000
76.500000 54.750000 96.500000
76.500000 27.375000 96.500000
0.000000 82.125000 96.500000
-25.500000 82.125000 96.500000
0.000000 54.750000 96.500000
-51.000000 82.125000 96.500000
-25.500000 54.750000 96.500000
0.000000 27.375000 96.500000
25.500000 0.000000 96.500000
51.000000 -27.375000 96.500000
51.000000 0.000000 96.500000
76.500000 -54.750000 96.500000
76.500000 -27.375000 96.500000
76.500000 0.000000 96.500000
25.500000 54.750000 96.500000
25.500000 27.375000 96.500000
51.000000 27.375000 96.500000
