-102.500000 -69.000000 -105.000000
-102.500000 -92.000000 -78.750000
-102.500000 -92.000000 -105.000000
-102.500000 -69.000000 -78.750000
-102.500000 -92.000000 -52.500000
-102.500000 -46.000000 -105.000000
-102.500000 -69.000000 -52.500000
-102.500000 -92.000000 -26.250000
-102.500000 -69.000000 -26.250000
-102.500000 -92.000000 0.000000
-102.500000 -46.000000 -52.500000
-102.500000 -46.000000 -78.750000
-102.500000 -23.000000 -78.750000
-102.500000 -23.000000 -105.000000
-102.500000 0.000000 -105.000000
-102.500000 -69.000000 0.000000
-102.500000 -92.000000 26.250000
-102.500000 -69.000000 26.250000
-102.500000 -92.000000 52.500000
-102.500000 -46.000000 0.000000
-102.500000 -69.000000 52.500000
-102.500000 -92.000000 78.750000
-102.500000 -69.000000 78.750000
-102.500000 -92.000000 105.000000
-102.500000 -46.000000 52.500000
-102.500000 -46.000000 26.250000
-102.500000 -23.000000 26.250000
-102.500000 -23.000000 0.000000
-102.500000 0.000000 0.000000
-102.500000 0.000000 -26.250000
-102.500000 23.000000 -26.250000
-102.500000 23.000000 -52.500000
-102.500000 46.000000 -52.500000
-102.500000 0.000000 -52.500000
-102.500000 46.000000 -78.750000
-102.500000 69.000000 -78.750000
-102.500000 69.000000 -105.000000
-102.500000 92.000000 -105.000000
-102.500000 46.000000 -105.000000
-102.500000 23.000000 -78.750000
-102.500000 23.000000 -105.000000
-102.500000 0.000000 -78.750000
-102.500000 -46.000000 -26.250000
-102.500000 -23.000000 -26.250000
-102.500000 -23.000000 -52.500000
-102.500000 69.000000 105.000000
-102.500000 92.000000 78.750000
-102.500000 92.000000 105.000000
-102.500000 69.000000 78.750000
-102.500000 92.000000 52.500000
-102.500000 46.000000 105.000000
-102.500000 69.000000 52.500000
-102.500000 92.000000 26.250000
-102.500000 69.000000 26.250000
-102.500000 92.000000 0.000000
-102.500000 46.000000 52.500000
-102.500000 46.000000 78.750000
-102.500000 23.000000 78.750000
-102.500000 23.000000 105.000000
-102.500000 0.000000 105.000000
-102.500000 69.000000 0.000000
-102.500000 92.000000 -26.250000
-102.500000 69.000000 -26.250000
-102.500000 92.000000 -52.500000
-102.500000 46.000000 0.000000
-102.500000 69.000000 -52.500000
-102.500000 92.000000 -78.750000
-102.500000 46.000000 -26.250000
-102.500000 23.000000 0.000000
-102.500000 0.000000 26.250000
-102.500000 -23.000000 52.500000
-102.500000 0.000000 52.500000
-102.500000 -46.000000 78.750000
-102.500000 -69.000000 105.000000
-102.500000 -46.000000 105.000000
-102.500000 -23.000000 78.750000
-102.500000 -23.000000 105.000000
-102.500000 0.000000 78.750000
-102.500000 46.000000 26.250000
-102.500000 23.000000 26.250000
-102.500000 23.000000 52.500000
102.500000 -92.000000 -78.750000
102.500000 -69.000000 -105.000000
102.500000 -92.000000 -105.000000
102.500000 -69.000000 -78.750000
102.500000 -46.000000 -105.000000
102.500000 -92.000000 -52.500000
102.500000 -46.000000 -78.750000
102.500000 -23.000000 -105.000000
102.500000 -23.000000 -78.750000
102.500000 0.000000 -105.000000
102.500000 -46.000000 -52.500000
102.500000 -69.000000 -52.500000
102.500000 -69.000000 -26.250000
102.500000 -92.000000 -26.250000
102.500000 -92.000000 0.000000
102.500000 0.000000 -78.750000
102.500000 23.000000 -105.000000
102.500000 23.000000 -78.750000
102.500000 46.000000 -105.000000
102.500000 0.000000 -52.500000
102.500000 46.000000 -78.750000
102.500000 69.000000 -105.000000
102.500000 69.000000 -78.750000
102.500000 92.000000 -105.000000
102.500000 46.000000 -52.500000
102.500000 23.000000 -52.500000
102.500000 23.000000 -26.250000
102.500000 0.000000 -26.250000
102.500000 0.000000 0.000000
102.500000 -23.000000 0.000000
102.500000 -23.000000 26.250000
102.500000 -46.000000 26.250000
102.500000 -46.000000 52.500000
102.500000 -46.000000 0.000000
102.500000 -69.000000 52.500000
102.500000 -69.000000 78.750000
102.500000 -92.000000 78.750000
102.500000 -92.000000 105.000000
102.500000 -92.000000 52.500000
102.500000 -69.000000 26.250000
102.500000 -92.000000 26.250000
102.500000 -69.000000 0.000000
102.500000 -23.000000 -52.500000
102.500000 -23.000000 -26.250000
102.500000 -46.000000 -26.250000
102.500000 92.000000 78.750000
102.500000 69.000000 105.000000
102.500000 92.000000 105.000000
102.500000 69.000000 78.750000
102.500000 46.000000 105.000000
102.500000 92.000000 52.500000
102.500000 46.000000 78.750000
102.500000 23.000000 105.000000
102.500000 23.000000 78.750000
102.500000 0.000000 105.000000
102.500000 46.000000 52.500000
102.500000 69.000000 52.500000
102.500000 69.000000 26.250000
102.500000 92.000000 26.250000
102.500000 92.000000 0.000000
102.500000 0.000000 78.750000
102.500000 -23.000000 105.000000
102.500000 -23.000000 78.750000
102.500000 -46.000000 105.000000
102.500000 0.000000 52.500000
102.500000 -46.000000 78.750000
102.500000 -69.000000 105.000000
102.500000 -23.000000 52.500000
102.500000 0.000000 26.250000
102.500000 23.000000 0.000000
102.500000 46.000000 -26.250000
102.500000 46.000000 0.000000
102.500000 69.000000 -52.500000
102.500000 92.000000 -78.750000
102.500000 92.000000 -52.500000
102.500000 69.000000 -26.250000
102.500000 92.000000 -26.250000
102.500000 69.000000 0.000000
102.500000 23.000000 52.500000
102.500000 23.000000 26.250000
102.500000 46.000000 26.250000
-76.875000 -92.000000 -105.000000
-76.875000 -92.000000 -78.750000
-51.250000 -92.000000 -105.000000
-51.250000 -92.000000 -78.750000
-25.625000 -92.000000 -105.000000
-25.625000 -92.000000 -78.750000
0.000000 -92.000000 -105.000000
-51.250000 -92.000000 -52.500000
-76.875000 -92.000000 -52.500000
-76.875000 -92.000000 -26.250000
0.000000 -92.000000 -78.750000
25.625000 -92.000000 -105.000000
25.625000 -92.000000 -78.750000
51.250000 -92.000000 -105.000000
0.000000 -92.000000 -52.500000
51.250000 -92.000000 -78.750000
76.875000 -92.000000 -105.000000
76.875000 -92.000000 -78.750000
51.250000 -92.000000 -52.500000
25.625000 -92.000000 -52.500000
25.625000 -92.000000 -26.250000
0.000000 -92.000000 -26.250000
0.000000 -92.000000 0.000000
-25.625000 -92.000000 0.000000
-25.625000 -92.000000 26.250000
-51.250000 -92.000000 26.250000
-51.250000 -92.000000 52.500000
-51.250000 -92.000000 0.000000
-76.875000 -92.000000 52.500000
-76.875000 -92.000000 78.750000
-76.875000 -92.000000 26.250000
-76.875000 -92.000000 0.000000
-25.625000 -92.000000 -52.500000
-25.625000 -92.000000 -26.250000
-51.250000 -92.000000 -26.250000
76.875000 -92.000000 105.000000
76.875000 -92.000000 78.750000
51.250000 -92.000000 105.000000
51.250000 -92.000000 78.750000
25.625000 -92.000000 105.000000
25.625000 -92.000000 78.750000
0.000000 -92.000000 105.000000
51.250000 -92.000000 52.500000
76.875000 -92.000000 52.500000
76.875000 -92.000000 26.250000
0.000000 -92.000000 78.750000
-25.625000 -92.000000 105.000000
-25.625000 -92.000000 78.750000
-51.250000 -92.000000 105.000000
0.000000 -92.000000 52.500000
-51.250000 -92.000000 78.750000
-76.875000 -92.000000 105.000000
-25.625000 -92.000000 52.500000
0.000000 -92.000000 26.250000
25.625000 -92.000000 0.000000
51.250000 -92.000000 -26.250000
51.250000 -92.000000 0.000000
76.875000 -92.000000 -52.500000
76.875000 -92.000000 -26.250000
76.875000 -92.000000 0.000000
25.625000 -92.000000 52.500000
25.625000 -92.000000 26.250000
51.250000 -92.000000 26.250000
-76.875000 92.000000 -105.000000
-76.875000 92.000000 -78.750000
-51.250000 92.000000 -105.000000
-76.875000 92.000000 -52.500000
-76.875000 92.000000 -26.250000
-51.250000 92.000000 -52.500000
-51.250000 92.000000 -78.750000
-25.625000 92.000000 -78.750000
-25.625000 92.000000 -105.000000
0.000000 92.000000 -105.000000
-76.875000 92.000000 0.000000
-76.875000 92.000000 26.250000
-51.250000 92.000000 0.000000
-76.875000 92.000000 52.500000
-76.875000 92.000000 78.750000
-51.250000 92.000000 52.500000
-51.250000 92.000000 26.250000
-25.625000 92.000000 26.250000
-25.625000 92.000000 0.000000
0.000000 92.000000 0.000000
0.000000 92.000000 -26.250000
25.625000 92.000000 -26.250000
25.625000 92.000000 -52.500000
51.250000 92.000000 -52.500000
0.000000 92.000000 -52.500000
51.250000 92.000000 -78.750000
76.875000 92.000000 -78.750000
76.875000 92.000000 -105.000000
51.250000 92.000000 -105.000000
25.625000 92.000000 -78.750000
25.625000 92.000000 -105.000000
0.000000 92.000000 -78.750000
-51.250000 92.000000 -26.250000
-25.625000 92.000000 -26.250000
-25.625000 92.000000 -52.500000
76.875000 92.000000 105.000000
76.875000 92.000000 78.750000
51.250000 92.000000 105.000000
76.875000 92.000000 52.500000
76.875000 92.000000 26.250000
51.250000 92.000000 52.500000
51.250000 92.000000 78.750000
25.625000 92.000000 78.750000
25.625000 92.000000 105.000000
0.000000 92.000000 105.000000
76.875000 92.000000 0.000000
76.875000 92.000000 -26.250000
51.250000 92.000000 0.000000
76.875000 92.000000 -52.500000
51.250000 92.000000 -26.250000
25.625000 92.000000 0.000000
0.000000 92.000000 26.250000
-25.625000 92.000000 52.500000
0.000000 92.000000 52.500000
-51.250000 92.000000 78.750000
-76.875000 92.000000 105.000000
-51.250000 92.000000 105.000000
-25.625000 92.000000 78.750000
-25.625000 92.000000 105.000000
0.000000 92.000000 78.750000
51.250000 92.000000 26.250000
25.625000 92.000000 26.250000
25.625000 92.000000 52.500000
-76.875000 -69.000000 -105.000000
-76.875000 -46.000000 -105.000000
-76.875000 -23.000000 -105.000000
-51.250000 -46.000000 -105.000000
-51.250000 -69.000000 -105.000000
-25.625000 -69.000000 -105.000000
-76.875000 0.000000 -105.000000
-76.875000 23.000000 -105.000000
-51.250000 0.000000 -105.000000
-76.875000 46.000000 -105.000000
-76.875000 69.000000 -105.000000
-51.250000 46.000000 -105.000000
-51.250000 23.000000 -105.000000
-25.625000 23.000000 -105.000000
-25.625000 0.000000 -105.000000
0.000000 0.000000 -105.000000
0.000000 -23.000000 -105.000000
25.625000 -23.000000 -105.000000
25.625000 -46.000000 -105.000000
51.250000 -46.000000 -105.000000
0.000000 -46.000000 -105.000000
51.250000 -69.000000 -105.000000
76.875000 -69.000000 -105.000000
25.625000 -69.000000 -105.000000
0.000000 -69.000000 -105.000000
-51.250000 -23.000000 -105.000000
-25.625000 -23.000000 -105.000000
-25.625000 -46.000000 -105.000000
76.875000 69.000000 -105.000000
76.875000 46.000000 -105.000000
76.875000 23.000000 -105.000000
51.250000 46.000000 -105.000000
51.250000 69.000000 -105.000000
25.625000 69.000000 -105.000000
76.875000 0.000000 -105.000000
76.875000 -23.000000 -105.000000
51.250000 0.000000 -105.000000
76.875000 -46.000000 -105.000000
51.250000 -23.000000 -105.000000
25.625000 0.000000 -105.000000
0.000000 23.000000 -105.000000
-25.625000 46.000000 -105.000000
0.000000 46.000000 -105.000000
-51.250000 69.000000 -105.000000
-25.625000 69.000000 -105.000000
0.000000 69.000000 -105.000000
51.250000 23.000000 -105.000000
25.625000 23.000000 -105.000000
25.625000 46.000000 -105.000000
-76.875000 -69.000000 105.000000
-51.250000 -69.000000 105.000000
-25.625000 -69.000000 105.000000
-51.250000 -46.000000 105.000000
-76.875000 -46.000000 105.000000
-76.875000 -23.000000 105.000000
0.000000 -69.000000 105.000000
25.625000 -69.000000 105.000000
0.000000 -46.000000 105.000000
51.250000 -69.000000 105.000000
76.875000 -69.000000 105.000000
51.250000 -46.000000 105.000000
25.625000 -46.000000 105.000000
25.625000 -23.000000 105.000000
0.000000 -23.000000 105.000000
0.000000 0.000000 105.000000
-25.625000 0.000000 105.000000
-25.625000 23.000000 105.000000
-51.250000 23.000000 105.000000
-51.250000 46.000000 105.000000
-51.250000 0.000000 105.000000
-76.875000 46.000000 105.000000
-76.875000 69.000000 105.000000
-76.875000 23.000000 105.000000
-76.875000 0.000000 105.000000
-25.625000 -46.000000 105.000000
-25.625000 -23.000000 105.000000
-51.250000 -23.000000 105.000000
76.875000 69.000000 105.000000
51.250000 69.000000 105.000000
25.625000 69.000000 105.000000
51.250000 46.000000 105.000000
76.875000 46.000000 105.000000
76.875000 23.000000 105.000000
0.000000 69.000000 105.000000
-25.625000 69.000000 105.000000
0.000000 46.000000 105.000000
-51.250000 69.000000 105.000000
-25.625000 46.000000 105.000000
0.000000 23.000000 105.000000
25.625000 0.000000 105.000000
51.250000 -23.000000 105.000000
51.250000 0.000000 105.000000
76.875000 -46.000000 105.000000
76.875000 -23.000000 105.000000
76.875000 0.000000 105.000000
25.625000 46.000000 105.000000
25.625000 23.000000 105.000000
51.250000 23.000000 105.000000
