-91.000000 -72.000000 -101.000000
-91.000000 -96.000000 -75.750000
-91.000000 -96.000000 -101.000000
-91.000000 -72.000000 -75.750000
-91.000000 -96.000000 -50.500000
-91.000000 -48.000000 -101.000000
-91.000000 -72.000000 -50.500000
-91.000000 -96.000000 -25.250000
-91.000000 -72.000000 -25.250000
-91.000000 -96.000000 0.000000
-91.000000 -48.000000 -50.500000
-91.000000 -48.000000 -75.750000
-91.000000 -24.000000 -75.750000
-91.000000 -24.000000 -101.000000
-91.000000 0.000000 -101.000000
-91.000000 -72.000000 0.000000
-91.000000 -96.000000 25.250000
-91.000000 -72.000000 25.250000
-91.000000 -96.000000 50.500000
-91.000000 -48.000000 0.000000
-91.000000 -72.000000 50.500000
-91.000000 -96.000000 75.750000
-91.000000 -72.000000 75.750000
-91.000000 -96.000000 101.000000
-91.000000 -48.000000 50.500000
-91.000000 -48.000000 25.250000
-91.000000 -24.000000 25.250000
-91.000000 -24.000000 0.000000
-91.000000 0.000000 0.000000
-91.000000 0.000000 -25.250000
-91.000000 24.000000 -25.250000
-91.000000 24.000000 -50.500000
-91.000000 48.000000 -50.500000
-91.000000 0.000000 -50.500000
-91.000000 48.000000 -75.750000
-91.000000 72.000000 -75.750000
-91.000000 72.000000 -101.000000
-91.000000 96.000000 -101.000000
-91.000000 48.000000 -101.000000
-91.000000 24.000000 -75.750000
-91.000000 24.000000 -101.000000
-91.000000 0.000000 -75.750000
-91.000000 -48.000000 -25.250000
-91.000000 -24.000000 -25.250000
-91.000000 -24.000000 -50.500000
-91.000000 72.000000 101.000000
-91.000000 96.000000 75.750000
-91.000000 96.000000 101.000000
-91.000000 72.000000 75.750000
-91.000000 96.000000 50.500000
-91.000000 48.000000 101.000000
-91.000000 72.000000 50.500000
-91.000000 96.000000 25.250000
-91.000000 72.000000 25.250000
-91.000000 96.000000 0.000000
-91.000000 48.000000 50.500000
-91.000000 48.000000 75.750000
-91.000000 24.000000 75.750000
-91.000000 24.000000 101.000000
-91.000000 0.000000 101.000000
-91.000000 72.000000 0.000000
-91.000000 96.000000 -25.250000
-91.000000 72.000000 -25.250000
-91.000000 96.000000 -50.500000
-91.000000 48.000000 0.000000
-91.000000 72.000000 -50.500000
-91.000000 96.000000 -75.750000
-91.000000 48.000000 -25.250000
-91.000000 24.000000 0.000000
-91.000000 0.000000 25.250000
-91.000000 -24.000000 50.500000
-91.000000 0.000000 50.500000
-91.000000 -48.000000 75.750000
-91.000000 -72.000000 101.000000
-91.000000 -48.000000 101.000000
-91.000000 -24.000000 75.750000
-91.000000 -24.000000 101.000000
-91.000000 0.000000 75.750000
-91.000000 48.000000 25.250000
-91.000000 24.000000 25.250000
-91.000000 24.000000 50.500000
91.000000 -96.000000 -75.750000
91.000000 -72.000000 -101.000000
91.000000 -96.000000 -101.000000
91.000000 -72.000000 -75.750000
91.000000 -48.000000 -101.000000
91.000000 -96.000000 -50.500000
91.000000 -48.000000 -75.750000
91.000000 -24.000000 -101.000000
91.000000 -24.000000 -75.750000
91.000000 0.000000 -101.000000
91.000000 -48.000000 -50.500000
91.000000 -72.000000 -50.500000
91.000000 -72.000000 -25.250000
91.000000 -96.000000 -25.250000
91.000000 -96.000000 0.000000
91.000000 0.000000 -75.750000
91.000000 24.000000 -101.000000
91.000000 24.000000 -75.750000
91.000000 48.000000 -101.000000
91.000000 0.000000 -50.500000
91.000000 48.000000 -75.750000
91.000000 72.000000 -101.000000
91.000000 72.000000 -75.750000
91.000000 96.000000 -101.000000
91.000000 48.000000 -50.500000
91.000000 24.000000 -50.500000
91.000000 24.000000 -25.250000
91.000000 0.000000 -25.250000
91.000000 0.000000 0.000000
91.000000 -24.000000 0.000000
91.000000 -24.000000 25.250000
91.000000 -48.000000 25.250000
91.000000 -48.000000 50.500000
91.000000 -48.000000 0.000000
91.000000 -72.000000 50.500000
91.000000 -72.000000 75.750000
91.000000 -96.000000 75.750000
91.000000 -96.000000 101.000000
91.000000 -96.000000 50.500000
91.000000 -72.000000 25.250000
91.000000 -96.000000 25.250000
91.000000 -72.000000 0.000000
91.000000 -24.000000 -50.500000
91.000000 -24.000000 -25.250000
91.000000 -48.000000 -25.250000
91.000000 96.000000 75.750000
91.000000 72.000000 101.000000
91.000000 96.000000 101.000000
91.000000 72.000000 75.750000
91.000000 48.000000 101.000000
91.000000 96.000000 50.500000
91.000000 48.000000 75.750000
91.000000 24.000000 101.000000
91.000000 24.000000 75.750000
91.000000 0.000000 101.000000
91.000000 48.000000 50.500000
91.000000 72.000000 50.500000
91.000000 72.000000 25.250000
91.000000 96.000000 25.250000
91.000000 96.000000 0.000000
91.000000 0.000000 75.750000
91.000000 -24.000000 101.000000
91.000000 -24.000000 75.750000
91.000000 -48.000000 101.000000
91.000000 0.000000 50.500000
91.000000 -48.000000 75.750000
91.000000 -72.000000 101.000000
91.000000 -24.000000 50.500000
91.000000 0.000000 25.250000
91.000000 24.000000 0.000000
91.000000 48.000000 -25.250000
91.000000 48.000000 0.000000
91.000000 72.000000 -50.500000
91.000000 96.000000 -75.750000
91.000000 96.000000 -50.500000
91.000000 72.000000 -25.250000
91.000000 96.000000 -25.250000
91.000000 72.000000 0.000000
91.000000 24.000000 50.500000
91.000000 24.000000 25.250000
91.000000 48.000000 25.250000
-68.250000 -96.000000 -101.000000
-68.250000 -96.000000 -75.750000
-45.500000 -96.000000 -101.000000
-45.500000 -96.000000 -75.750000
-22.750000 -96.000000 -101.000000
-22.750000 -96.000000 -75.750000
0.000000 -96.000000 -101.000000
-45.500000 -96.000000 -50.500000
-68.250000 -96.000000 -50.500000
-68.250000 -96.000000 -25.250000
0.000000 -96.000000 -75.750000
22.750000 -96.000000 -101.000000
22.750000 -96.000000 -75.750000
45.500000 -96.000000 -101.000000
0.000000 -96.000000 -50.500000
45.500000 -96.000000 -75.750000
68.250000 -96.000000 -101.000000
68.250000 -96.000000 -75.750000
45.500000 -96.000000 -50.500000
22.750000 -96.000000 -50.500000
22.750000 -96.000000 -25.250000
0.000000 -96.000000 -25.250000
0.000000 -96.000000 0.000000
-22.750000 -96.000000 0.000000
-22.750000 -96.000000 25.250000
-45.500000 -96.000000 25.250000
-45.500000 -96.000000 50.500000
-45.500000 -96.000000 0.000000
-68.250000 -96.000000 50.500000
-68.250000 -96.000000 75.750000
-68.250000 -96.000000 25.250000
-68.250000 -96.000000 0.000000
-22.750000 -96.000000 -50.500000
-22.750000 -96.000000 -25.250000
-45.500000 -96.000000 -25.250000
68.250000 -96.000000 101.000000
68.250000 -96.000000 75.750000
45.500000 -96.000000 101.000000
45.500000 -96.000000 75.750000
22.750000 -96.000000 101.000000
22.750000 -96.000000 75.750000
0.000000 -96.000000 101.000000
45.500000 -96.000000 50.500000
68.250000 -96.000000 50.500000
68.250000 -96.000000 25.250000
0.000000 -96.000000 75.750000
-22.750000 -96.000000 101.000000
-22.750000 -96.000000 75.750000
-45.500000 -96.000000 101.000000
0.000000 -96.000000 50.500000
-45.500000 -96.000000 75.750000
-68.250000 -96.000000 101.000000
-22.750000 -96.000000 50.500000
0.000000 -96.000000 25.250000
22.750000 -96.000000 0.000000
45.500000 -96.000000 -25.250000
45.500000 -96.000000 0.000000
68.250000 -96.000000 -50.500000
68.250000 -96.000000 -25.250000
68.250000 -96.000000 0.000000
22.750000 -96.000000 50.500000
22.750000 -96.000000 25.250000
45.500000 -96.000000 25.250000
-68.250000 96.000000 -101.000000
-68.250000 96.000000 -75.750000
-45.500000 96.000000 -101.000000
-68.250000 96.000000 -50.500000
-68.250000 96.000000 -25.250000
-45.500000 96.000000 -50.500000
-45.500000 96.000000 -75.750000
-22.750000 96.000000 -75.750000
-22.750000 96.000000 -101.000000
0.000000 96.000000 -101.000000
-68.250000 96.000000 0.000000
-68.250000 96.000000 25.250000
-45.500000 96.000000 0.000000
-68.250000 96.000000 50.500000
-68.250000 96.000000 75.750000
-45.500000 96.000000 50.500000
-45.500000 96.000000 25.250000
-22.750000 96.000000 25.250000
-22.750000 96.000000 0.000000
0.000000 96.000000 0.000000
0.000000 96.000000 -25.250000
22.750000 96.000000 -25.250000
22.750000 96.000000 -50.500000
45.500000 96.000000 -50.500000
0.000000 96.000000 -50.500000
45.500000 96.000000 -75.750000
68.250000 96.000000 -75.750000
68.250000 96.000000 -101.000000
45.500000 96.000000 -101.000000
22.750000 96.000000 -75.750000
22.750000 96.000000 -101.000000
0.000000 96.000000 -75.750000
-45.500000 96.000000 -25.250000
-22.750000 96.000000 -25.250000
-22.750000 96.000000 -50.500000
68.250000 96.000000 101.000000
68.250000 96.000000 75.750000
45.500000 96.000000 101.000000
68.250000 96.000000 50.500000
68.250000 96.000000 25.250000
45.500000 96.000000 50.500000
45.500000 96.000000 75.750000
22.750000 96.000000 75.750000
22.750000 96.000000 101.000000
0.000000 96.000000 101.000000
68.250000 96.000000 0.000000
68.250000 96.000000 -25.250000
45.500000 96.000000 0.000000
68.250000 96.000000 -50.500000
45.500000 96.000000 -25.250000
22.750000 96.000000 0.000000
0.000000 96.000000 25.250000
-22.750000 96.000000 50.500000
0.000000 96.000000 50.500000
-45.500000 96.000000 75.750000
-68.250000 96.000000 101.000000
-45.500000 96.000000 101.000000
-22.750000 96.000000 75.750000
-22.750000 96.000000 101.000000
0.000000 96.000000 75.750000
45.500000 96.000000 25.250000
22.750000 96.000000 25.250000
22.750000 96.000000 50.500000
-68.250000 -72.000000 -101.000000
-68.250000 -48.000000 -101.000000
-68.250000 -24.000000 -101.000000
-45.500000 -48.000000 -101.000000
-45.500000 -72.000000 -101.000000
-22.750000 -72.000000 -101.000000
-68.250000 0.000000 -101.000000
-68.250000 24.000000 -101.000000
-45.500000 0.000000 -101.000000
-68.250000 48.000000 -101.000000
-68.250000 72.000000 -101.000000
-45.500000 48.000000 -101.000000
-45.500000 24.000000 -101.000000
-22.750000 24.000000 -101.000000
-22.750000 0.000000 -101.000000
0.000000 0.000000 -101.000000
0.000000 -24.000000 -101.000000
22.750000 -24.000000 -101.000000
22.750000 -48.000000 -101.000000
45.500000 -48.000000 -101.000000
0.000000 -48.000000 -101.000000
45.500000 -72.000000 -101.000000
68.250000 -72.000000 -101.000000
22.750000 -72.000000 -101.000000
0.000000 -72.000000 -101.000000
-45.500000 -24.000000 -101.000000
-22.750000 -24.000000 -101.000000
-22.750000 -48.000000 -101.000000
68.250000 72.000000 -101.000000
68.250000 48.000000 -101.000000
68.250000 24.000000 -101.000000
45.500000 48.000000 -101.000000
45.500000 72.000000 -101.000000
22.750000 72.000000 -101.000000
68.250000 0.000000 -101.000000
68.250000 -24.000000 -101.000000
45.500000 0.000000 -101.000000
68.250000 -48.000000 -101.000000
45.500000 -24.000000 -101.000000
22.750000 0.000000 -101.000000
0.000000 24.000000 -101.000000
-22.750000 48.000000 -101.000000
0.000000 48.000000 -101.000000
-45.500000 72.000000 -101.000000
-22.750000 72.000000 -101.000000
0.000000 72.000000 -101.000000
45.500000 24.000000 -101.000000
22.750000 24.000000 -101.000000
22.750000 48.000000 -101.000000
-68.250000 -72.000000 101.000000
-45.500000 -72.000000 101.000000
-22.750000 -72.000000 101.000000
-45.500000 -48.000000 101.000000
-68.250000 -48.000000 101.000000
-68.250000 -24.000000 101.000000
0.000000 -72.000000 101.000000
22.750000 -72.000000 101.000000
0.000000 -48.000000 101.000000
45.500000 -72.000000 101.000000
68.250000 -72.000000 101.000000
45.500000 -48.000000 101.000000
22.750000 -48.000000 101.000000
22.750000 -24.000000 101.000000
0.000000 -24.000000 101.000000
0.000000 0.000000 101.000000
-22.750000 0.000000 101.000000
-22.750000 24.000000 101.000000
-45.500000 24.000000 101.000000
-45.500000 48.000000 101.000000
-45.500000 0.000000 101.000000
-68.250000 48.000000 101.000000
-68.250000 72.000000 101.000000
-68.250000 24.000000 101.000000
-68.250000 0.000000 101.000000
-22.750000 -48.000000 101.000000
-22.750000 -24.000000 101.000000
-45.500000 -24.000000 101.000000
68.250000 72.000000 101.000000
45.500000 72.000000 101.000000
22.750000 72.000000 101.000000
45.500000 48.000000 101.000000
68.250000 48.000000 101.000000
68.250000 24.000000 101.000000
0.000000 72.000000 101.000000
-22.750000 72.000000 101.000000
0.000000 48.000000 101.000000
-45.500000 72.000000 101.000000
-22.750000 48.000000 101.000000
0.000000 24.000000 101.000000
22.750000 0.000000 101.000000
45.500000 -24.000000 101.000000
45.500000 0.000000 101.000000
68.250000 -48.000000 101.000000
68.250000 -24.000000 101.000000
68.250000 0.000000 101.000000
22.750000 48.000000 101.000000
22.750000 24.000000 101.000000
45.500000 24.000000 101.000000
