-96.500000 -78.375000 -106.000000
-96.500000 -104.500000 -79.500000
-96.500000 -104.500000 -106.000000
-96.500000 -78.375000 -79.500000
-96.500000 -104.500000 -53.000000
-96.500000 -52.250000 -106.000000
-96.500000 -78.375000 -53.000000
-96.500000 -104.500000 -26.500000
-96.500000 -78.375000 -26.500000
-96.500000 -104.500000 0.000000
-96.500000 -52.250000 -53.000000
-96.500000 -52.250000 -79.500000
-96.500000 -26.125000 -79.500000
-96.500000 -26.125000 -106.000000
-96.500000 0.000000 -106.000000
-96.500000 -78.375000 0.000000
-96.500000 -104.500000 26.500000
-96.500000 -78.375000 26.500000
-96.500000 -104.500000 53.000000
-96.500000 -52.250000 0.000000
-96.500000 -78.375000 53.000000
-96.500000 -104.500000 79.500000
-96.500000 -78.375000 79.500000
-96.500000 -104.500000 106.000000
-96.500000 -52.250000 53.000000
-96.500000 -52.250000 26.500000
-96.500000 -26.125000 26.500000
-96.500000 -26.125000 0.000000
-96.500000 0.000000 0.000000
-96.500000 0.000000 -26.500000
-96.500000 26.125000 -26.500000
-96.500000 26.125000 -53.000000
-96.500000 52.250000 -53.000000
-96.500000 0.000000 -53.000000
-96.500000 52.250000 -79.500000
-96.500000 78.375000 -79.500000
-96.500000 78.375000 -106.000000
-96.500000 104.500000 -106.000000
-96.500000 52.250000 -106.000000
-96.500000 26.125000 -79.500000
-96.500000 26.125000 -106.000000
-96.500000 0.000000 -79.500000
-96.500000 -52.250000 -26.500000
-96.500000 -26.125000 -26.500000
-96.500000 -26.125000 -53.000000
-96.500000 78.375000 106.000000
-96.500000 104.500000 79.500000
-96.500000 104.500000 106.000000
-96.500000 78.375000 79.500000
-96.500000 104.500000 53.000000
-96.500000 52.250000 106.000000
-96.500000 78.375000 53.000000
-96.500000 104.500000 26.500000
-96.500000 78.375000 26.500000
-96.500000 104.500000 0.000000
-96.500000 52.250000 53.000000
-96.500000 52.250000 79.500000
-96.500000 26.125000 79.500000
-96.500000 26.125000 106.000000
-96.500000 0.000000 106.000000
-96.500000 78.375000 0.000000
-96.500000 104.500000 -26.500000
-96.500000 78.375000 -26.500000
-96.500000 104.500000 -53.000000
-96.500000 52.250000 0.000000
-96.500000 78.375000 -53.000000
-96.500000 104.500000 -79.500000
-96.500000 52.250000 -26.500000
-96.500000 26.125000 0.000000
-96.500000 0.000000 26.500000
-96.500000 -26.125000 53.000000
-96.500000 0.000000 53.000000
-96.500000 -52.250000 79.500000
-96.500000 -78.375000 106.000000
-96.500000 -52.250000 106.000000
-96.500000 -26.125000 79.500000
-96.500000 -26.125000 106.000000
-96.500000 0.000000 79.500000
-96.500000 52.250000 26.500000
-96.500000 26.125000 26.500000
-96.500000 26.125000 53.000000
96.500000 -104.500000 -79.500000
96.500000 -78.375000 -106.000000
96.500000 -104.500000 -106.000000
96.500000 -78.375000 -79.500000
96.500000 -52.250000 -106.000000
96.500000 -104.500000 -53.000000
96.500000 -52.250000 -79.500000
96.500000 -26.125000 -106.000000
96.500000 -26.125000 -79.500000
96.500000 0.000000 -106.000000
96.500000 -52.250000 -53.000000
96.500000 -78.375000 -53.000000
96.500000 -78.375000 -26.500000
96.500000 -104.500000 -26.500000
96.500000 -104.500000 0.000000
96.500000 0.000000 -79.500000
96.500000 26.125000 -106.000000
96.500000 26.125000 -79.500000
96.500000 52.250000 -106.000000
96.500000 0.000000 -53.000000
96.500000 52.250000 -79.500000
96.500000 78.375000 -106.000000
96.500000 78.375000 -79.500000
96.500000 104.500000 -106.000000
96.500000 52.250000 -53.000000
96.500000 26.125000 -53.000000
96.500000 26.125000 -26.500000
96.500000 0.000000 -26.500000
96.500000 0.000000 0.000000
96.500000 -26.125000 0.000000
96.500000 -26.125000 26.500000
96.500000 -52.250000 26.500000
96.500000 -52.250000 53.000000
96.500000 -52.250000 0.000000
96.500000 -78.375000 53.000000
96.500000 -78.375000 79.500000
96.500000 -104.500000 79.500000
96.500000 -104.500000 106.000000
96.500000 -104.500000 53.000000
96.500000 -78.375000 26.500000
96.500000 -104.500000 26.500000
96.500000 -78.375000 0.000000
96.500000 -26.125000 -53.000000
96.500000 -26.125000 -26.500000
96.500000 -52.250000 -26.500000
96.500000 104.500000 79.500000
96.500000 78.375000 106.000000
96.500000 104.500000 106.000000
96.500000 78.375000 79.500000
96.500000 52.250000 106.000000
96.500000 104.500000 53.000000
96.500000 52.250000 79.500000
96.500000 26.125000 106.000000
96.500000 26.125000 79.500000
96.500000 0.000000 106.000000
96.500000 52.250000 53.000000
96.500000 78.375000 53.000000
96.500000 78.375000 26.500000
96.500000 104.500000 26.500000
96.500000 104.500000 0.000000
96.500000 0.000000 79.500000
96.500000 -26.125000 106.000000
96.500000 -26.125000 79.500000
96.500000 -52.250000 106.000000
96.500000 0.000000 53.000000
96.500000 -52.250000 79.500000
96.500000 -78.375000 106.000000
96.500000 -26.125000 53.000000
96.500000 0.000000 26.500000
96.500000 26.125000 0.000000
96.500000 52.250000 -26.500000
96.500000 52.250000 0.000000
96.500000 78.375000 -53.000000
96.500000 104.500000 -79.500000
96.500000 104.500000 -53.000000
96.500000 78.375000 -26.500000
96.500000 104.500000 -26.500000
96.500000 78.375000 0.000000
96.500000 26.125000 53.000000
96.500000 26.125000 26.500000
96.500000 52.250000 26.500000
-72.375000 -104.500000 -106.000000
-72.375000 -104.500000 -79.500000
-48.250000 -104.500000 -106.000000
-48.250000 -104.500000 -79.500000
-24.125000 -104.500000 -106.000000
-24.125000 -104.500000 -79.500000
0.000000 -104.500000 -106.000000
-48.250000 -104.500000 -53.000000
-72.375000 -104.500000 -53.000000
-72.375000 -104.500000 -26.500000
0.000000 -104.500000 -79.500000
24.125000 -104.500000 -106.000000
24.125000 -104.500000 -79.500000
48.250000 -104.500000 -106.000000
0.000000 -104.500000 -53.000000
48.250000 -104.500000 -79.500000
72.375000 -104.500000 -106.000000
72.375000 -104.500000 -79.500000
48.250000 -104.500000 -53.000000
24.125000 -104.500000 -53.000000
24.125000 -104.500000 -26.500000
0.000000 -104.500000 -26.500000
0.000000 -104.500000 0.000000
-24.125000 -104.500000 0.000000
-24.125000 -104.500000 26.500000
-48.250000 -104.500000 26.500000
-48.250000 -104.500000 53.000000
-48.250000 -104.500000 0.000000
-72.375000 -104.500000 53.000000
-72.375000 -104.500000 79.500000
-72.375000 -104.500000 26.500000
-72.375000 -104.500000 0.000000
-24.125000 -104.500000 -53.000000
-24.125000 -104.500000 -26.500000
-48.250000 -104.500000 -26.500000
72.375000 -104.500000 106.000000
72.375000 -104.500000 79.500000
48.250000 -104.500000 106.000000
48.250000 -104.500000 79.500000
24.125000 -104.500000 106.000000
24.125000 -104.500000 79.500000
0.000000 -104.500000 106.000000
48.250000 -104.500000 53.000000
72.375000 -104.500000 53.000000
72.375000 -104.500000 26.500000
0.000000 -104.500000 79.500000
-24.125000 -104.500000 106.000000
-24.125000 -104.500000 79.500000
-48.250000 -104.500000 106.000000
0.000000 -104.500000 53.000000
-48.250000 -104.500000 79.500000
-72.375000 -104.500000 106.000000
-24.125000 -104.500000 53.000000
0.000000 -104.500000 26.500000
24.125000 -104.500000 0.000000
48.250000 -104.500000 -26.500000
48.250000 -104.500000 0.000000
72.375000 -104.500000 -53.000000
72.375000 -104.500000 -26.500000
72.375000 -104.500000 0.000000
24.125000 -104.500000 53.000000
24.125000 -104.500000 26.500000
48.250000 -104.500000 26.500000
-72.375000 104.500000 -106.000000
-72.375000 104.500000 -79.500000
-48.250000 104.500000 -106.000000
-72.375000 104.500000 -53.000000
-72.375000 104.500000 -26.500000
-48.250000 104.500000 -53.000000
-48.250000 104.500000 -79.500000
-24.125000 104.500000 -79.500000
-24.125000 104.500000 -106.000000
0.000000 104.500000 -106.000000
-72.375000 104.500000 0.000000
-72.375000 104.500000 26.500000
-48.250000 104.500000 0.000000
-72.375000 104.500000 53.000000
-72.375000 104.500000 79.500000
-48.250000 104.500000 53.000000
-48.250000 104.500000 26.500000
-24.125000 104.500000 26.500000
-24.125000 104.500000 0.000000
0.000000 104.500000 0.000000
0.000000 104.500000 -26.500000
24.125000 104.500000 -26.500000
24.125000 104.500000 -53.000000
48.250000 104.500000 -53.000000
0.000000 104.500000 -53.000000
48.250000 104.500000 -79.500000
72.375000 104.500000 -79.500000
72.375000 104.500000 -106.000000
48.250000 104.500000 -106.000000
24.125000 104.500000 -79.500000
24.125000 104.500000 -106.000000
0.000000 104.500000 -79.500000
-48.250000 104.500000 -26.500000
-24.125000 104.500000 -26.500000
-24.125000 104.500000 -53.000000
72.375000 104.500000 106.000000
72.375000 104.500000 79.500000
48.250000 104.500000 106.000000
72.375000 104.500000 53.000000
72.375000 104.500000 26.500000
48.250000 104.500000 53.000000
48.250000 104.500000 79.500000
24.125000 104.500000 79.500000
24.125000 104.500000 106.000000
0.000000 104.500000 106.000000
72.375000 104.500000 0.000000
72.375000 104.500000 -26.500000
48.250000 104.500000 0.000000
72.375000 104.500000 -53.000000
48.250000 104.500000 -26.500000
24.125000 104.500000 0.000000
0.000000 104.500000 26.500000
-24.125000 104.500000 53.000000
0.000000 104.500000 53.000000
-48.250000 104.500000 79.500000
-72.375000 104.500000 106.000000
-48.250000 104.500000 106.000000
-24.125000 104.500000 79.500000
-24.125000 104.500000 106.000000
0.000000 104.500000 79.500000
48.250000 104.500000 26.500000
24.125000 104.500000 26.500000
24.125000 104.500000 53.000000
-72.375000 -78.375000 -106.000000
-72.375000 -52.250000 -106.000000
-72.375000 -26.125000 -106.000000
-48.250000 -52.250000 -106.000000
-48.250000 -78.375000 -106.000000
-24.125000 -78.375000 -106.000000
-72.375000 0.000000 -106.000000
-72.375000 26.125000 -106.000000
-48.250000 0.000000 -106.000000
-72.375000 52.250000 -106.000000
-72.375000 78.375000 -106.000000
-48.250000 52.250000 -106.000000
-48.250000 26.125000 -106.000000
-24.125000 26.125000 -106.000000
-24.125000 0.000000 -106.000000
0.000000 0.000000 -106.000000
0.000000 -26.125000 -106.000000
24.125000 -26.125000 -106.000000
24.125000 -52.250000 -106.000000
48.250000 -52.250000 -106.000000
0.000000 -52.250000 -106.000000
48.250000 -78.375000 -106.000000
72.375000 -78.375000 -106.000000
24.125000 -78.375000 -106.000000
0.000000 -78.375000 -106.000000
-48.250000 -26.125000 -106.000000
-24.125000 -26.125000 -106.000000
-24.125000 -52.250000 -106.000000
72.375000 78.375000 -106.000000
72.375000 52.250000 -106.000000
72.375000 26.125000 -106.000000
48.250000 52.250000 -106.000000
48.250000 78.375000 -106.000000
24.125000 78.375000 -106.000000
72.375000 0.000000 -106.000000
72.375000 -26.125000 -106.000000
48.250000 0.000000 -106.000000
72.375000 -52.250000 -106.000000
48.250000 -26.125000 -106.000000
24.125000 0.000000 -106.000000
0.000000 26.125000 -106.000000
-24.125000 52.250000 -106.000000
0.000000 52.250000 -106.000000
-48.250000 78.375000 -106.000000
-24.125000 78.375000 -106.000000
0.000000 78.375000 -106.000000
48.250000 26.125000 -106.000000
24.125000 26.125000 -106.000000
24.125000 52.250000 -106.000000
-72.375000 -78.375000 106.000000
-48.250000 -78.375000 106.000000
-24.125000 -78.375000 106.000000
-48.250000 -52.250000 106.000000
-72.375000 -52.250000 106.000000
-72.375000 -26.125000 106.000000
0.000000 -78.375000 106.000000
24.125000 -78.375000 106.000000
0.000000 -52.250000 106.000000
48.250000 -78.375000 106.000000
72.375000 -78.375000 106.000000
48.250000 -52.250000 106.000000
24.125000 -52.250000 106.000000
24.125000 -26.125000 106.000000
0.000000 -26.125000 106.000000
0.000000 0.000000 106.000000
-24.125000 0.000000 106.000000
-24.125000 26.125000 106.000000
-48.250000 26.125000 106.000000
-48.250000 52.250000 106.000000
-48.250000 0.000000 106.000000
-72.375000 52.250000 106.000000
-72.375000 78.375000 106.000000
-72.375000 26.125000 106.000000
-72.375000 0.000000 106.000000
-24.125000 -52.250000 106.000000
-24.125000 -26.125000 106.000000
-48.250000 -26.125000 106.000000
72.375000 78.375000 106.000000
48.250000 78.375000 106.000000
24.125000 78.375000 106.000000
48.250000 52.250000 106.000000
72.375000 52.250000 106.000000
72.375000 26.125000 106.000000
0.000000 78.375000 106.000000
-24.125000 78.375000 106.000000
0.000000 52.250000 106.000000
-48.250000 78.375000 106.000000
-24.125000 52.250000 106.000000
0.000000 26.125000 106.000000
24.125000 0.000000 106.000000
48.250000 -26.125000 106.000000
48.250000 0.000000 106.000000
72.375000 -52.250000 106.000000
72.375000 -26.125000 106.000000
72.375000 0.000000 106.000000
24.125000 52.250000 106.000000
24.125000 26.125000 106.000000
48.250000 26.125000 106.000000
