-106.000000 -78.375000 -93.000000
-106.000000 -104.500000 -69.750000
-106.000000 -104.500000 -93.000000
-106.000000 -78.375000 -69.750000
-106.000000 -104.500000 -46.500000
-106.000000 -52.250000 -93.000000
-106.000000 -78.375000 -46.500000
-106.000000 -104.500000 -23.250000
-106.000000 -78.375000 -23.250000
-106.000000 -104.500000 0.000000
-106.000000 -52.250000 -46.500000
-106.000000 -52.250000 -69.750000
-106.000000 -26.125000 -69.750000
-106.000000 -26.125000 -93.000000
-106.000000 0.000000 -93.000000
-106.000000 -78.375000 0.000000
-106.000000 -104.500000 23.250000
-106.000000 -78.375000 23.250000
-106.000000 -104.500000 46.500000
-106.000000 -52.250000 0.000000
-106.000000 -78.375000 46.500000
-106.000000 -104.500000 69.750000
-106.000000 -78.375000 69.750000
-106.000000 -104.500000 93.000000
-106.000000 -52.250000 46.500000
-106.000000 -52.250000 23.250000
-106.000000 -26.125000 23.250000
-106.000000 -26.125000 0.000000
-106.000000 0.000000 0.000000
-106.000000 0.000000 -23.250000
-106.000000 26.125000 -23.250000
-106.000000 26.125000 -46.500000
-106.000000 52.250000 -46.500000
-106.000000 0.000000 -46.500000
-106.000000 52.250000 -69.750000
-106.000000 78.375000 -69.750000
-106.000000 78.375000 -93.000000
-106.000000 104.500000 -93.000000
-106.000000 52.250000 -93.000000
-106.000000 26.125000 -69.750000
-106.000000 26.125000 -93.000000
-106.000000 0.000000 -69.750000
-106.000000 -52.250000 -23.250000
-106.000000 -26.125000 -23.250000
-106.000000 -26.125000 -46.500000
-106.000000 78.375000 93.000000
-106.000000 104.500000 69.750000
-106.000000 104.500000 93.000000
-106.000000 78.375000 69.750000
-106.000000 104.500000 46.500000
-106.000000 52.250000 93.000000
-106.000000 78.375000 46.500000
-106.000000 104.500000 23.250000
-106.000000 78.375000 23.250000
-106.000000 104.500000 0.000000
-106.000000 52.250000 46.500000
-106.000000 52.250000 69.750000
-106.000000 26.125000 69.750000
-106.000000 26.125000 93.000000
-106.000000 0.000000 93.000000
-106.000000 78.375000 0.000000
-106.000000 104.500000 -23.250000
-106.000000 78.375000 -23.250000
-106.000000 104.500000 -46.500000
-106.000000 52.250000 0.000000
-106.000000 78.375000 -46.500000
-106.000000 104.500000 -69.750000
-106.000000 52.250000 -23.250000
-106.000000 26.125000 0.000000
-106.000000 0.000000 23.250000
-106.000000 -26.125000 46.500000
-106.000000 0.000000 46.500000
-106.000000 -52.250000 69.750000
-106.000000 -78.375000 93.000000
-106.000000 -52.250000 93.000000
-106.000000 -26.125000 69.750000
-106.000000 -26.125000 93.000000
-106.000000 0.000000 69.750000
-106.000000 52.250000 23.250000
-106.000000 26.125000 23.250000
-106.000000 26.125000 46.500000
106.000000 -104.500000 -69.750000
106.000000 -78.375000 -93.000000
106.000000 -104.500000 -93.000000
106.000000 -78.375000 -69.750000
106.000000 -52.250000 -93.000000
106.000000 -104.500000 -46.500000
106.000000 -52.250000 -69.750000
106.000000 -26.125000 -93.000000
106.000000 -26.125000 -69.750000
106.000000 0.000000 -93.000000
106.000000 -52.250000 -46.500000
106.000000 -78.375000 -46.500000
106.000000 -78.375000 -23.250000
106.000000 -104.500000 -23.250000
106.000000 -104.500000 0.000000
106.000000 0.000000 -69.750000
106.000000 26.125000 -93.000000
106.000000 26.125000 -69.750000
106.000000 52.250000 -93.000000
106.000000 0.000000 -46.500000
106.000000 52.250000 -69.750000
106.000000 78.375000 -93.000000
106.000000 78.375000 -69.750000
106.000000 104.500000 -93.000000
106.000000 52.250000 -46.500000
106.000000 26.125000 -46.500000
106.000000 26.125000 -23.250000
106.000000 0.000000 -23.250000
106.000000 0.000000 0.000000
106.000000 -26.125000 0.000000
106.000000 -26.125000 23.250000
106.000000 -52.250000 23.250000
106.000000 -52.250000 46.500000
106.000000 -52.250000 0.000000
106.000000 -78.375000 46.500000
106.000000 -78.375000 69.750000
106.000000 -104.500000 69.750000
106.000000 -104.500000 93.000000
106.000000 -104.500000 46.500000
106.000000 -78.375000 23.250000
106.000000 -104.500000 23.250000
106.000000 -78.375000 0.000000
106.000000 -26.125000 -46.500000
106.000000 -26.125000 -23.250000
106.000000 -52.250000 -23.250000
106.000000 104.500000 69.750000
106.000000 78.375000 93.000000
106.000000 104.500000 93.000000
106.000000 78.375000 69.750000
106.000000 52.250000 93.000000
106.000000 104.500000 46.500000
106.000000 52.250000 69.750000
106.000000 26.125000 93.000000
106.000000 26.125000 69.750000
106.000000 0.000000 93.000000
106.000000 52.250000 46.500000
106.000000 78.375000 46.500000
106.000000 78.375000 23.250000
106.000000 104.500000 23.250000
106.000000 104.500000 0.000000
106.000000 0.000000 69.750000
106.000000 -26.125000 93.000000
106.000000 -26.125000 69.750000
106.000000 -52.250000 93.000000
106.000000 0.000000 46.500000
106.000000 -52.250000 69.750000
106.000000 -78.375000 93.000000
106.000000 -26.125000 46.500000
106.000000 0.000000 23.250000
106.000000 26.125000 0.000000
106.000000 52.250000 -23.250000
106.000000 52.250000 0.000000
106.000000 78.375000 -46.500000
106.000000 104.500000 -69.750000
106.000000 104.500000 -46.500000
106.000000 78.375000 -23.250000
106.000000 104.500000 -23.250000
106.000000 78.375000 0.000000
106.000000 26.125000 46.500000
106.000000 26.125000 23.250000
106.000000 52.250000 23.250000
-79.500000 -104.500000 -93.000000
-79.500000 -104.500000 -69.750000
-53.000000 -104.500000 -93.000000
-53.000000 -104.500000 -69.750000
-26.500000 -104.500000 -93.000000
-26.500000 -104.500000 -69.750000
0.000000 -104.500000 -93.000000
-53.000000 -104.500000 -46.500000
-79.500000 -104.500000 -46.500000
-79.500000 -104.500000 -23.250000
0.000000 -104.500000 -69.750000
26.500000 -104.500000 -93.000000
26.500000 -104.500000 -69.750000
53.000000 -104.500000 -93.000000
0.000000 -104.500000 -46.500000
53.000000 -104.500000 -69.750000
79.500000 -104.500000 -93.000000
79.500000 -104.500000 -69.750000
53.000000 -104.500000 -46.500000
26.500000 -104.500000 -46.500000
26.500000 -104.500000 -23.250000
0.000000 -104.500000 -23.250000
0.000000 -104.500000 0.000000
-26.500000 -104.500000 0.000000
-26.500000 -104.500000 23.250000
-53.000000 -104.500000 23.250000
-53.000000 -104.500000 46.500000
-53.000000 -104.500000 0.000000
-79.500000 -104.500000 46.500000
-79.500000 -104.500000 69.750000
-79.500000 -104.500000 23.250000
-79.500000 -104.500000 0.000000
-26.500000 -104.500000 -46.500000
-26.500000 -104.500000 -23.250000
-53.000000 -104.500000 -23.250000
79.500000 -104.500000 93.000000
79.500000 -104.500000 69.750000
53.000000 -104.500000 93.000000
53.000000 -104.500000 69.750000
26.500000 -104.500000 93.000000
26.500000 -104.500000 69.750000
0.000000 -104.500000 93.000000
53.000000 -104.500000 46.500000
79.500000 -104.500000 46.500000
79.500000 -104.500000 23.250000
0.000000 -104.500000 69.750000
-26.500000 -104.500000 93.000000
-26.500000 -104.500000 69.750000
-53.000000 -104.500000 93.000000
0.000000 -104.500000 46.500000
-53.000000 -104.500000 69.750000
-79.500000 -104.500000 93.000000
-26.500000 -104.500000 46.500000
0.000000 -104.500000 23.250000
26.500000 -104.500000 0.000000
53.000000 -104.500000 -23.250000
53.000000 -104.500000 0.000000
79.500000 -104.500000 -46.500000
79.500000 -104.500000 -23.250000
79.500000 -104.500000 0.000000
26.500000 -104.500000 46.500000
26.500000 -104.500000 23.250000
53.000000 -104.500000 23.250000
-79.500000 104.500000 -93.000000
-79.500000 104.500000 -69.750000
-53.000000 104.500000 -93.000000
-79.500000 104.500000 -46.500000
-79.500000 104.500000 -23.250000
-53.000000 104.500000 -46.500000
-53.000000 104.500000 -69.750000
-26.500000 104.500000 -69.750000
-26.500000 104.500000 -93.000000
0.000000 104.500000 -93.000000
-79.500000 104.500000 0.000000
-79.500000 104.500000 23.250000
-53.000000 104.500000 0.000000
-79.500000 104.500000 46.500000
-79.500000 104.500000 69.750000
-53.000000 104.500000 46.500000
-53.000000 104.500000 23.250000
-26.500000 104.500000 23.250000
-26.500000 104.500000 0.000000
0.000000 104.500000 0.000000
0.000000 104.500000 -23.250000
26.500000 104.500000 -23.250000
26.500000 104.500000 -46.500000
53.000000 104.500000 -46.500000
0.000000 104.500000 -46.500000
53.000000 104.500000 -69.750000
79.500000 104.500000 -69.750000
79.500000 104.500000 -93.000000
53.000000 104.500000 -93.000000
26.500000 104.500000 -69.750000
26.500000 104.500000 -93.000000
0.000000 104.500000 -69.750000
-53.000000 104.500000 -23.250000
-26.500000 104.500000 -23.250000
-26.500000 104.500000 -46.500000
79.500000 104.500000 93.000000
79.500000 104.500000 69.750000
53.000000 104.500000 93.000000
79.500000 104.500000 46.500000
79.500000 104.500000 23.250000
53.000000 104.500000 46.500000
53.000000 104.500000 69.750000
26.500000 104.500000 69.750000
26.500000 104.500000 93.000000
0.000000 104.500000 93.000000
79.500000 104.500000 0.000000
79.500000 104.500000 -23.250000
53.000000 104.500000 0.000000
79.500000 104.500000 -46.500000
53.000000 104.500000 -23.250000
26.500000 104.500000 0.000000
0.000000 104.500000 23.250000
-26.500000 104.500000 46.500000
0.000000 104.500000 46.500000
-53.000000 104.500000 69.750000
-79.500000 104.500000 93.000000
-53.000000 104.500000 93.000000
-26.500000 104.500000 69.750000
-26.500000 104.500000 93.000000
0.000000 104.500000 69.750000
53.000000 104.500000 23.250000
26.500000 104.500000 23.250000
26.500000 104.500000 46.500000
-79.500000 -78.375000 -93.000000
-79.500000 -52.250000 -93.000000
-79.500000 -26.125000 -93.000000
-53.000000 -52.250000 -93.000000
-53.000000 -78.375000 -93.000000
-26.500000 -78.375000 -93.000000
-79.500000 0.000000 -93.000000
-79.500000 26.125000 -93.000000
-53.000000 0.000000 -93.000000
-79.500000 52.250000 -93.000000
-79.500000 78.375000 -93.000000
-53.000000 52.250000 -93.000000
-53.000000 26.125000 -93.000000
-26.500000 26.125000 -93.000000
-26.500000 0.000000 -93.000000
0.000000 0.000000 -93.000000
0.000000 -26.125000 -93.000000
26.500000 -26.125000 -93.000000
26.500000 -52.250000 -93.000000
53.000000 -52.250000 -93.000000
0.000000 -52.250000 -93.000000
53.000000 -78.375000 -93.000000
79.500000 -78.375000 -93.000000
26.500000 -78.375000 -93.000000
0.000000 -78.375000 -93.000000
-53.000000 -26.125000 -93.000000
-26.500000 -26.125000 -93.000000
-26.500000 -52.250000 -93.000000
79.500000 78.375000 -93.000000
79.500000 52.250000 -93.000000
79.500000 26.125000 -93.000000
53.000000 52.250000 -93.000000
53.000000 78.375000 -93.000000
26.500000 78.375000 -93.000000
79.500000 0.000000 -93.000000
79.500000 -26.125000 -93.000000
53.000000 0.000000 -93.000000
79.500000 -52.250000 -93.000000
53.000000 -26.125000 -93.000000
26.500000 0.000000 -93.000000
0.000000 26.125000 -93.000000
-26.500000 52.250000 -93.000000
0.000000 52.250000 -93.000000
-53.000000 78.375000 -93.000000
-26.500000 78.375000 -93.000000
0.000000 78.375000 -93.000000
53.000000 26.125000 -93.000000
26.500000 26.125000 -93.000000
26.500000 52.250000 -93.000000
-79.500000 -78.375000 93.000000
-53.000000 -78.375000 93.000000
-26.500000 -78.375000 93.000000
-53.000000 -52.250000 93.000000
-79.500000 -52.250000 93.000000
-79.500000 -26.125000 93.000000
0.000000 -78.375000 93.000000
26.500000 -78.375000 93.000000
0.000000 -52.250000 93.000000
53.000000 -78.375000 93.000000
79.500000 -78.375000 93.000000
53.000000 -52.250000 93.000000
26.500000 -52.250000 93.000000
26.500000 -26.125000 93.000000
0.000000 -26.125000 93.000000
0.000000 0.000000 93.000000
-26.500000 0.000000 93.000000
-26.500000 26.125000 93.000000
-53.000000 26.125000 93.000000
-53.000000 52.250000 93.000000
-53.000000 0.000000 93.000000
-79.500000 52.250000 93.000000
-79.500000 78.375000 93.000000
-79.500000 26.125000 93.000000
-79.500000 0.000000 93.000000
-26.500000 -52.250000 93.000000
-26.500000 -26.125000 93.000000
-53.000000 -26.125000 93.000000
79.500000 78.375000 93.000000
53.000000 78.375000 93.000000
26.500000 78.375000 93.000000
53.000000 52.250000 93.000000
79.500000 52.250000 93.000000
79.500000 26.125000 93.000000
0.000000 78.375000 93.000000
-26.500000 78.375000 93.000000
0.000000 52.250000 93.000000
-53.000000 78.375000 93.000000
-26.500000 52.250000 93.000000
0.000000 26.125000 93.000000
26.500000 0.000000 93.000000
53.000000 -26.125000 93.000000
53.000000 0.000000 93.000000
79.500000 -52.250000 93.000000
79.500000 -26.125000 93.000000
79.500000 0.000000 93.000000
26.500000 52.250000 93.000000
26.500000 26.125000 93.000000
53.000000 26.125000 93.000000
