-102.500000 -78.375000 -95.500000
-102.500000 -104.500000 -71.625000
-102.500000 -104.500000 -95.500000
-102.500000 -78.375000 -71.625000
-102.500000 -104.500000 -47.750000
-102.500000 -52.250000 -95.500000
-102.500000 -78.375000 -47.750000
-102.500000 -104.500000 -23.875000
-102.500000 -78.375000 -23.875000
-102.500000 -104.500000 0.000000
-102.500000 -52.250000 -47.750000
-102.500000 -52.250000 -71.625000
-102.500000 -26.125000 -71.625000
-102.500000 -26.125000 -95.500000
-102.500000 0.000000 -95.500000
-102.500000 -78.375000 0.000000
-102.500000 -104.500000 23.875000
-102.500000 -78.375000 23.875000
-102.500000 -104.500000 47.750000
-102.500000 -52.250000 0.000000
-102.500000 -78.375000 47.750000
-102.500000 -104.500000 71.625000
-102.500000 -78.375000 71.625000
-102.500000 -104.500000 95.500000
-102.500000 -52.250000 47.750000
-102.500000 -52.250000 23.875000
-102.500000 -26.125000 23.875000
-102.500000 -26.125000 0.000000
-102.500000 0.000000 0.000000
-102.500000 0.000000 -23.875000
-102.500000 26.125000 -23.875000
-102.500000 26.125000 -47.750000
-102.500000 52.250000 -47.750000
-102.500000 0.000000 -47.750000
-102.500000 52.250000 -71.625000
-102.500000 78.375000 -71.625000
-102.500000 78.375000 -95.500000
-102.500000 104.500000 -95.500000
-102.500000 52.250000 -95.500000
-102.500000 26.125000 -71.625000
-102.500000 26.125000 -95.500000
-102.500000 0.000000 -71.625000
-102.500000 -52.250000 -23.875000
-102.500000 -26.125000 -23.875000
-102.500000 -26.125000 -47.750000
-102.500000 78.375000 95.500000
-102.500000 104.500000 71.625000
-102.500000 104.500000 95.500000
-102.500000 78.375000 71.625000
-102.500000 104.500000 47.750000
-102.500000 52.250000 95.500000
-102.500000 78.375000 47.750000
-102.500000 104.500000 23.875000
-102.500000 78.375000 23.875000
-102.500000 104.500000 0.000000
-102.500000 52.250000 47.750000
-102.500000 52.250000 71.625000
-102.500000 26.125000 71.625000
-102.500000 26.125000 95.500000
-102.500000 0.000000 95.500000
-102.500000 78.375000 0.000000
-102.500000 104.500000 -23.875000
-102.500000 78.375000 -23.875000
-102.500000 104.500000 -47.750000
-102.500000 52.250000 0.000000
-102.500000 78.375000 -47.750000
-102.500000 104.500000 -71.625000
-102.500000 52.250000 -23.875000
-102.500000 26.125000 0.000000
-102.500000 0.000000 23.875000
-102.500000 -26.125000 47.750000
-102.500000 0.000000 47.750000
-102.500000 -52.250000 71.625000
-102.500000 -78.375000 95.500000
-102.500000 -52.250000 95.500000
-102.500000 -26.125000 71.625000
-102.500000 -26.125000 95.500000
-102.500000 0.000000 71.625000
-102.500000 52.250000 23.875000
-102.500000 26.125000 23.875000
-102.500000 26.125000 47.750000
102.500000 -104.500000 -71.625000
102.500000 -78.375000 -95.500000
102.500000 -104.500000 -95.500000
102.500000 -78.375000 -71.625000
102.500000 -52.250000 -95.500000
102.500000 -104.500000 -47.750000
102.500000 -52.250000 -71.625000
102.500000 -26.125000 -95.500000
102.500000 -26.125000 -71.625000
102.500000 0.000000 -95.500000
102.500000 -52.250000 -47.750000
102.500000 -78.375000 -47.750000
102.500000 -78.375000 -23.875000
102.500000 -104.500000 -23.875000
102.500000 -104.500000 0.000000
102.500000 0.000000 -71.625000
102.500000 26.125000 -95.500000
102.500000 26.125000 -71.625000
102.500000 52.250000 -95.500000
102.500000 0.000000 -47.750000
102.500000 52.250000 -71.625000
102.500000 78.375000 -95.500000
102.500000 78.375000 -71.625000
102.500000 104.500000 -95.500000
102.500000 52.250000 -47.750000
102.500000 26.125000 -47.750000
102.500000 26.125000 -23.875000
102.500000 0.000000 -23.875000
102.500000 0.000000 0.000000
102.500000 -26.125000 0.000000
102.500000 -26.125000 23.875000
102.500000 -52.250000 23.875000
102.500000 -52.250000 47.750000
102.500000 -52.250000 0.000000
102.500000 -78.375000 47.750000
102.500000 -78.375000 71.625000
102.500000 -104.500000 71.625000
102.500000 -104.500000 95.500000
102.500000 -104.500000 47.750000
102.500000 -78.375000 23.875000
102.500000 -104.500000 23.875000
102.500000 -78.375000 0.000000
102.500000 -26.125000 -47.750000
102.500000 -26.125000 -23.875000
102.500000 -52.250000 -23.875000
102.500000 104.500000 71.625000
102.500000 78.375000 95.500000
102.500000 104.500000 95.500000
102.500000 78.375000 71.625000
102.500000 52.250000 95.500000
102.500000 104.500000 47.750000
102.500000 52.250000 71.625000
102.500000 26.125000 95.500000
102.500000 26.125000 71.625000
102.500000 0.000000 95.500000
102.500000 52.250000 47.750000
102.500000 78.375000 47.750000
102.500000 78.375000 23.875000
102.500000 104.500000 23.875000
102.500000 104.500000 0.000000
102.500000 0.000000 71.625000
102.500000 -26.125000 95.500000
102.500000 -26.125000 71.625000
102.500000 -52.250000 95.500000
102.500000 0.000000 47.750000
102.500000 -52.250000 71.625000
102.500000 -78.375000 95.500000
102.500000 -26.125000 47.750000
102.500000 0.000000 23.875000
102.500000 26.125000 0.000000
102.500000 52.250000 -23.875000
102.500000 52.250000 0.000000
102.500000 78.375000 -47.750000
102.500000 104.500000 -71.625000
102.500000 104.500000 -47.750000
102.500000 78.375000 -23.875000
102.500000 104.500000 -23.875000
102.500000 78.375000 0.000000
102.500000 26.125000 47.750000
102.500000 26.125000 23.875000
102.500000 52.250000 23.875000
-76.875000 -104.500000 -95.500000
-76.875000 -104.500000 -71.625000
-51.250000 -104.500000 -95.500000
-51.250000 -104.500000 -71.625000
-25.625000 -104.500000 -95.500000
-25.625000 -104.500000 -71.625000
0.000000 -104.500000 -95.500000
-51.250000 -104.500000 -47.750000
-76.875000 -104.500000 -47.750000
-76.875000 -104.500000 -23.875000
0.000000 -104.500000 -71.625000
25.625000 -104.500000 -95.500000
25.625000 -104.500000 -71.625000
51.250000 -104.500000 -95.500000
0.000000 -104.500000 -47.750000
51.250000 -104.500000 -71.625000
76.875000 -104.500000 -95.500000
76.875000 -104.500000 -71.625000
51.250000 -104.500000 -47.750000
25.625000 -104.500000 -47.750000
25.625000 -104.500000 -23.875000
0.000000 -104.500000 -23.875000
0.000000 -104.500000 0.000000
-25.625000 -104.500000 0.000000
-25.625000 -104.500000 23.875000
-51.250000 -104.500000 23.875000
-51.250000 -104.500000 47.750000
-51.250000 -104.500000 0.000000
-76.875000 -104.500000 47.750000
-76.875000 -104.500000 71.625000
-76.875000 -104.500000 23.875000
-76.875000 -104.500000 0.000000
-25.625000 -104.500000 -47.750000
-25.625000 -104.500000 -23.875000
-51.250000 -104.500000 -23.875000
76.875000 -104.500000 95.500000
76.875000 -104.500000 71.625000
51.250000 -104.500000 95.500000
51.250000 -104.500000 71.625000
25.625000 -104.500000 95.500000
25.625000 -104.500000 71.625000
0.000000 -104.500000 95.500000
51.250000 -104.500000 47.750000
76.875000 -104.500000 47.750000
76.875000 -104.500000 23.875000
0.000000 -104.500000 71.625000
-25.625000 -104.500000 95.500000
-25.625000 -104.500000 71.625000
-51.250000 -104.500000 95.500000
0.000000 -104.500000 47.750000
-51.250000 -104.500000 71.625000
-76.875000 -104.500000 95.500000
-25.625000 -104.500000 47.750000
0.000000 -104.500000 23.875000
25.625000 -104.500000 0.000000
51.250000 -104.500000 -23.875000
51.250000 -104.500000 0.000000
76.875000 -104.500000 -47.750000
76.875000 -104.500000 -23.875000
76.875000 -104.500000 0.000000
25.625000 -104.500000 47.750000
25.625000 -104.500000 23.875000
51.250000 -104.500000 23.875000
-76.875000 104.500000 -95.500000
-76.875000 104.500000 -71.625000
-51.250000 104.500000 -95.500000
-76.875000 104.500000 -47.750000
-76.875000 104.500000 -23.875000
-51.250000 104.500000 -47.750000
-51.250000 104.500000 -71.625000
-25.625000 104.500000 -71.625000
-25.625000 104.500000 -95.500000
0.000000 104.500000 -95.500000
-76.875000 104.500000 0.000000
-76.875000 104.500000 23.875000
-51.250000 104.500000 0.000000
-76.875000 104.500000 47.750000
-76.875000 104.500000 71.625000
-51.250000 104.500000 47.750000
-51.250000 104.500000 23.875000
-25.625000 104.500000 23.875000
-25.625000 104.500000 0.000000
0.000000 104.500000 0.000000
0.000000 104.500000 -23.875000
25.625000 104.500000 -23.875000
25.625000 104.500000 -47.750000
51.250000 104.500000 -47.750000
0.000000 104.500000 -47.750000
51.250000 104.500000 -71.625000
76.875000 104.500000 -71.625000
76.875000 104.500000 -95.500000
51.250000 104.500000 -95.500000
25.625000 104.500000 -71.625000
25.625000 104.500000 -95.500000
0.000000 104.500000 -71.625000
-51.250000 104.500000 -23.875000
-25.625000 104.500000 -23.875000
-25.625000 104.500000 -47.750000
76.875000 104.500000 95.500000
76.875000 104.500000 71.625000
51.250000 104.500000 95.500000
76.875000 104.500000 47.750000
76.875000 104.500000 23.875000
51.250000 104.500000 47.750000
51.250000 104.500000 71.625000
25.625000 104.500000 71.625000
25.625000 104.500000 95.500000
0.000000 104.500000 95.500000
76.875000 104.500000 0.000000
76.875000 104.500000 -23.875000
51.250000 104.500000 0.000000
76.875000 104.500000 -47.750000
51.250000 104.500000 -23.875000
25.625000 104.500000 0.000000
0.000000 104.500000 23.875000
-25.625000 104.500000 47.750000
0.000000 104.500000 47.750000
-51.250000 104.500000 71.625000
-76.875000 104.500000 95.500000
-51.250000 104.500000 95.500000
-25.625000 104.500000 71.625000
-25.625000 104.500000 95.500000
0.000000 104.500000 71.625000
51.250000 104.500000 23.875000
25.625000 104.500000 23.875000
25.625000 104.500000 47.750000
-76.875000 -78.375000 -95.500000
-76.875000 -52.250000 -95.500000
-76.875000 -26.125000 -95.500000
-51.250000 -52.250000 -95.500000
-51.250000 -78.375000 -95.500000
-25.625000 -78.375000 -95.500000
-76.875000 0.000000 -95.500000
-76.875000 26.125000 -95.500000
-51.250000 0.000000 -95.500000
-76.875000 52.250000 -95.500000
-76.875000 78.375000 -95.500000
-51.250000 52.250000 -95.500000
-51.250000 26.125000 -95.500000
-25.625000 26.125000 -95.500000
-25.625000 0.000000 -95.500000
0.000000 0.000000 -95.500000
0.000000 -26.125000 -95.500000
25.625000 -26.125000 -95.500000
25.625000 -52.250000 -95.500000
51.250000 -52.250000 -95.500000
0.000000 -52.250000 -95.500000
51.250000 -78.375000 -95.500000
76.875000 -78.375000 -95.500000
25.625000 -78.375000 -95.500000
0.000000 -78.375000 -95.500000
-51.250000 -26.125000 -95.500000
-25.625000 -26.125000 -95.500000
-25.625000 -52.250000 -95.500000
76.875000 78.375000 -95.500000
76.875000 52.250000 -95.500000
76.875000 26.125000 -95.500000
51.250000 52.250000 -95.500000
51.250000 78.375000 -95.500000
25.625000 78.375000 -95.500000
76.875000 0.000000 -95.500000
76.875000 -26.125000 -95.500000
51.250000 0.000000 -95.500000
76.875000 -52.250000 -95.500000
51.250000 -26.125000 -95.500000
25.625000 0.000000 -95.500000
0.000000 26.125000 -95.500000
-25.625000 52.250000 -95.500000
0.000000 52.250000 -95.500000
-51.250000 78.375000 -95.500000
-25.625000 78.375000 -95.500000
0.000000 78.375000 -95.500000
51.250000 26.125000 -95.500000
25.625000 26.125000 -95.500000
25.625000 52.250000 -95.500000
-76.875000 -78.375000 95.500000
-51.250000 -78.375000 95.500000
-25.625000 -78.375000 95.500000
-51.250000 -52.250000 95.500000
-76.875000 -52.250000 95.500000
-76.875000 -26.125000 95.500000
0.000000 -78.375000 95.500000
25.625000 -78.375000 95.500000
0.000000 -52.250000 95.500000
51.250000 -78.375000 95.500000
76.875000 -78.375000 95.500000
51.250000 -52.250000 95.500000
25.625000 -52.250000 95.500000
25.625000 -26.125000 95.500000
0.000000 -26.125000 95.500000
0.000000 0.000000 95.500000
-25.625000 0.000000 95.500000
-25.625000 26.125000 95.500000
-51.250000 26.125000 95.500000
-51.250000 52.250000 95.500000
-51.250000 0.000000 95.500000
-76.875000 52.250000 95.500000
-76.875000 78.375000 95.500000
-76.875000 26.125000 95.500000
-76.875000 0.000000 95.500000
-25.625000 -52.250000 95.500000
-25.625000 -26.125000 95.500000
-51.250000 -26.125000 95.500000
76.875000 78.375000 95.500000
51.250000 78.375000 95.500000
25.625000 78.375000 95.500000
51.250000 52.250000 95.500000
76.875000 52.250000 95.500000
76.875000 26.125000 95.500000
0.000000 78.375000 95.500000
-25.625000 78.375000 95.500000
0.000000 52.250000 95.500000
-51.250000 78.375000 95.500000
-25.625000 52.250000 95.500000
0.000000 26.125000 95.500000
25.625000 0.000000 95.500000
51.250000 -26.125000 95.500000
51.250000 0.000000 95.500000
76.875000 -52.250000 95.500000
76.875000 -26.125000 95.500000
76.875000 0.000000 95.500000
25.625000 52.250000 95.500000
25.625000 26.125000 95.500000
51.250000 26.125000 95.500000
