-109.000000 -72.750000 -109.000000
-109.000000 -97.000000 -81.750000
-109.000000 -97.000000 -109.000000
-109.000000 -72.750000 -81.750000
-109.000000 -97.000000 -54.500000
-109.000000 -48.500000 -109.000000
-109.000000 -72.750000 -54.500000
-109.000000 -97.000000 -27.250000
-109.000000 -72.750000 -27.250000
-109.000000 -97.000000 0.000000
-109.000000 -48.500000 -54.500000
-109.000000 -48.500000 -81.750000
-109.000000 -24.250000 -81.750000
-109.000000 -24.250000 -109.000000
-109.000000 0.000000 -109.000000
-109.000000 -72.750000 0.000000
-109.000000 -97.000000 27.250000
-109.000000 -72.750000 27.250000
-109.000000 -97.000000 54.500000
-109.000000 -48.500000 0.000000
-109.000000 -72.750000 54.500000
-109.000000 -97.000000 81.750000
-109.000000 -72.750000 81.750000
-109.000000 -97.000000 109.000000
-109.000000 -48.500000 54.500000
-109.000000 -48.500000 27.250000
-109.000000 -24.250000 27.250000
-109.000000 -24.250000 0.000000
-109.000000 0.000000 0.000000
-109.000000 0.000000 -27.250000
-109.000000 24.250000 -27.250000
-109.000000 24.250000 -54.500000
-109.000000 48.500000 -54.500000
-109.000000 0.000000 -54.500000
-109.000000 48.500000 -81.750000
-109.000000 72.750000 -81.750000
-109.000000 72.750000 -109.000000
-109.000000 97.000000 -109.000000
-109.000000 48.500000 -109.000000
-109.000000 24.250000 -81.750000
-109.000000 24.250000 -109.000000
-109.000000 0.000000 -81.750000
-109.000000 -48.500000 -27.250000
-109.000000 -24.250000 -27.250000
-109.000000 -24.250000 -54.500000
-109.000000 72.750000 109.000000
-109.000000 97.000000 81.750000
-109.000000 97.000000 109.000000
-109.000000 72.750000 81.750000
-109.000000 97.000000 54.500000
-109.000000 48.500000 109.000000
-109.000000 72.750000 54.500000
-109.000000 97.000000 27.250000
-109.000000 72.750000 27.250000
-109.000000 97.000000 0.000000
-109.000000 48.500000 54.500000
-109.000000 48.500000 81.750000
-109.000000 24.250000 81.750000
-109.000000 24.250000 109.000000
-109.000000 0.000000 109.000000
-109.000000 72.750000 0.000000
-109.000000 97.000000 -27.250000
-109.000000 72.750000 -27.250000
-109.000000 97.000000 -54.500000
-109.000000 48.500000 0.000000
-109.000000 72.750000 -54.500000
-109.000000 97.000000 -81.750000
-109.000000 48.500000 -27.250000
-109.000000 24.250000 0.000000
-109.000000 0.000000 27.250000
-109.000000 -24.250000 54.500000
-109.000000 0.000000 54.500000
-109.000000 -48.500000 81.750000
-109.000000 -72.750000 109.000000
-109.000000 -48.500000 109.000000
-109.000000 -24.250000 81.750000
-109.000000 -24.250000 109.000000
-109.000000 0.000000 81.750000
-109.000000 48.500000 27.250000
-109.000000 24.250000 27.250000
-109.000000 24.250000 54.500000
109.000000 -97.000000 -81.750000
109.000000 -72.750000 -109.000000
109.000000 -97.000000 -109.000000
109.000000 -72.750000 -81.750000
109.000000 -48.500000 -109.000000
109.000000 -97.000000 -54.500000
109.000000 -48.500000 -81.750000
109.000000 -24.250000 -109.000000
109.000000 -24.250000 -81.750000
109.000000 0.000000 -109.000000
109.000000 -48.500000 -54.500000
109.000000 -72.750000 -54.500000
109.000000 -72.750000 -27.250000
109.000000 -97.000000 -27.250000
109.000000 -97.000000 0.000000
109.000000 0.000000 -81.750000
109.000000 24.250000 -109.000000
109.000000 24.250000 -81.750000
109.000000 48.500000 -109.000000
109.000000 0.000000 -54.500000
109.000000 48.500000 -81.750000
109.000000 72.750000 -109.000000
109.000000 72.750000 -81.750000
109.000000 97.000000 -109.000000
109.000000 48.500000 -54.500000
109.000000 24.250000 -54.500000
109.000000 24.250000 -27.250000
109.000000 0.000000 -27.250000
109.000000 0.000000 0.000000
109.000000 -24.250000 0.000000
109.000000 -24.250000 27.250000
109.000000 -48.500000 27.250000
109.000000 -48.500000 54.500000
109.000000 -48.500000 0.000000
109.000000 -72.750000 54.500000
109.000000 -72.750000 81.750000
109.000000 -97.000000 81.750000
109.000000 -97.000000 109.000000
109.000000 -97.000000 54.500000
109.000000 -72.750000 27.250000
109.000000 -97.000000 27.250000
109.000000 -72.750000 0.000000
109.000000 -24.250000 -54.500000
109.000000 -24.250000 -27.250000
109.000000 -48.500000 -27.250000
109.000000 97.000000 81.750000
109.000000 72.750000 109.000000
109.000000 97.000000 109.000000
109.000000 72.750000 81.750000
109.000000 48.500000 109.000000
109.000000 97.000000 54.500000
109.000000 48.500000 81.750000
109.000000 24.250000 109.000000
109.000000 24.250000 81.750000
109.000000 0.000000 109.000000
109.000000 48.500000 54.500000
109.000000 72.750000 54.500000
109.000000 72.750000 27.250000
109.000000 97.000000 27.250000
109.000000 97.000000 0.000000
109.000000 0.000000 81.750000
109.000000 -24.250000 109.000000
109.000000 -24.250000 81.750000
109.000000 -48.500000 109.000000
109.000000 0.000000 54.500000
109.000000 -48.500000 81.750000
109.000000 -72.750000 109.000000
109.000000 -24.250000 54.500000
109.000000 0.000000 27.250000
109.000000 24.250000 0.000000
109.000000 48.500000 -27.250000
109.000000 48.500000 0.000000
109.000000 72.750000 -54.500000
109.000000 97.000000 -81.750000
109.000000 97.000000 -54.500000
109.000000 72.750000 -27.250000
109.000000 97.000000 -27.250000
109.000000 72.750000 0.000000
109.000000 24.250000 54.500000
109.000000 24.250000 27.250000
109.000000 48.500000 27.250000
-81.750000 -97.000000 -109.000000
-81.750000 -97.000000 -81.750000
-54.500000 -97.000000 -109.000000
-54.500000 -97.000000 -81.750000
-27.250000 -97.000000 -109.000000
-27.250000 -97.000000 -81.750000
0.000000 -97.000000 -109.000000
-54.500000 -97.000000 -54.500000
-81.750000 -97.000000 -54.500000
-81.750000 -97.000000 -27.250000
0.000000 -97.000000 -81.750000
27.250000 -97.000000 -109.000000
27.250000 -97.000000 -81.750000
54.500000 -97.000000 -109.000000
0.000000 -97.000000 -54.500000
54.500000 -97.000000 -81.750000
81.750000 -97.000000 -109.000000
81.750000 -97.000000 -81.750000
54.500000 -97.000000 -54.500000
27.250000 -97.000000 -54.500000
27.250000 -97.000000 -27.250000
0.000000 -97.000000 -27.250000
0.000000 -97.000000 0.000000
-27.250000 -97.000000 0.000000
-27.250000 -97.000000 27.250000
-54.500000 -97.000000 27.250000
-54.500000 -97.000000 54.500000
-54.500000 -97.000000 0.000000
-81.750000 -97.000000 54.500000
-81.750000 -97.000000 81.750000
-81.750000 -97.000000 27.250000
-81.750000 -97.000000 0.000000
-27.250000 -97.000000 -54.500000
-27.250000 -97.000000 -27.250000
-54.500000 -97.000000 -27.250000
81.750000 -97.000000 109.000000
81.750000 -97.000000 81.750000
54.500000 -97.000000 109.000000
54.500000 -97.000000 81.750000
27.250000 -97.000000 109.000000
27.250000 -97.000000 81.750000
0.000000 -97.000000 109.000000
54.500000 -97.000000 54.500000
81.750000 -97.000000 54.500000
81.750000 -97.000000 27.250000
0.000000 -97.000000 81.750000
-27.250000 -97.000000 109.000000
-27.250000 -97.000000 81.750000
-54.500000 -97.000000 109.000000
0.000000 -97.000000 54.500000
-54.500000 -97.000000 81.750000
-81.750000 -97.000000 109.000000
-27.250000 -97.000000 54.500000
0.000000 -97.000000 27.250000
27.250000 -97.000000 0.000000
54.500000 -97.000000 -27.250000
54.500000 -97.000000 0.000000
81.750000 -97.000000 -54.500000
81.750000 -97.000000 -27.250000
81.750000 -97.000000 0.000000
27.250000 -97.000000 54.500000
27.250000 -97.000000 27.250000
54.500000 -97.000000 27.250000
-81.750000 97.000000 -109.000000
-81.750000 97.000000 -81.750000
-54.500000 97.000000 -109.000000
-81.750000 97.000000 -54.500000
-81.750000 97.000000 -27.250000
-54.500000 97.000000 -54.500000
-54.500000 97.000000 -81.750000
-27.250000 97.000000 -81.750000
-27.250000 97.000000 -109.000000
0.000000 97.000000 -109.000000
-81.750000 97.000000 0.000000
-81.750000 97.000000 27.250000
-54.500000 97.000000 0.000000
-81.750000 97.000000 54.500000
-81.750000 97.000000 81.750000
-54.500000 97.000000 54.500000
-54.500000 97.000000 27.250000
-27.250000 97.000000 27.250000
-27.250000 97.000000 0.000000
0.000000 97.000000 0.000000
0.000000 97.000000 -27.250000
27.250000 97.000000 -27.250000
27.250000 97.000000 -54.500000
54.500000 97.000000 -54.500000
0.000000 97.000000 -54.500000
54.500000 97.000000 -81.750000
81.750000 97.000000 -81.750000
81.750000 97.000000 -109.000000
54.500000 97.000000 -109.000000
27.250000 97.000000 -81.750000
27.250000 97.000000 -109.000000
0.000000 97.000000 -81.750000
-54.500000 97.000000 -27.250000
-27.250000 97.000000 -27.250000
-27.250000 97.000000 -54.500000
81.750000 97.000000 109.000000
81.750000 97.000000 81.750000
54.500000 97.000000 109.000000
81.750000 97.000000 54.500000
81.750000 97.000000 27.250000
54.500000 97.000000 54.500000
54.500000 97.000000 81.750000
27.250000 97.000000 81.750000
27.250000 97.000000 109.000000
0.000000 97.000000 109.000000
81.750000 97.000000 0.000000
81.750000 97.000000 -27.250000
54.500000 97.000000 0.000000
81.750000 97.000000 -54.500000
54.500000 97.000000 -27.250000
27.250000 97.000000 0.000000
0.000000 97.000000 27.250000
-27.250000 97.000000 54.500000
0.000000 97.000000 54.500000
-54.500000 97.000000 81.750000
-81.750000 97.000000 109.000000
-54.500000 97.000000 109.000000
-27.250000 97.000000 81.750000
-27.250000 97.000000 109.000000
0.000000 97.000000 81.750000
54.500000 97.000000 27.250000
27.250000 97.000000 27.250000
27.250000 97.000000 54.500000
-81.750000 -72.750000 -109.000000
-81.750000 -48.500000 -109.000000
-81.750000 -24.250000 -109.000000
-54.500000 -48.500000 -109.000000
-54.500000 -72.750000 -109.000000
-27.250000 -72.750000 -109.000000
-81.750000 0.000000 -109.000000
-81.750000 24.250000 -109.000000
-54.500000 0.000000 -109.000000
-81.750000 48.500000 -109.000000
-81.750000 72.750000 -109.000000
-54.500000 48.500000 -109.000000
-54.500000 24.250000 -109.000000
-27.250000 24.250000 -109.000000
-27.250000 0.000000 -109.000000
0.000000 0.000000 -109.000000
0.000000 -24.250000 -109.000000
27.250000 -24.250000 -109.000000
27.250000 -48.500000 -109.000000
54.500000 -48.500000 -109.000000
0.000000 -48.500000 -109.000000
54.500000 -72.750000 -109.000000
81.750000 -72.750000 -109.000000
27.250000 -72.750000 -109.000000
0.000000 -72.750000 -109.000000
-54.500000 -24.250000 -109.000000
-27.250000 -24.250000 -109.000000
-27.250000 -48.500000 -109.000000
81.750000 72.750000 -109.000000
81.750000 48.500000 -109.000000
81.750000 24.250000 -109.000000
54.500000 48.500000 -109.000000
54.500000 72.750000 -109.000000
27.250000 72.750000 -109.000000
81.750000 0.000000 -109.000000
81.750000 -24.250000 -109.000000
54.500000 0.000000 -109.000000
81.750000 -48.500000 -109.000000
54.500000 -24.250000 -109.000000
27.250000 0.000000 -109.000000
0.000000 24.250000 -109.000000
-27.250000 48.500000 -109.000000
0.000000 48.500000 -109.000000
-54.500000 72.750000 -109.000000
-27.250000 72.750000 -109.000000
0.000000 72.750000 -109.000000
54.500000 24.250000 -109.000000
27.250000 24.250000 -109.000000
27.250000 48.500000 -109.000000
-81.750000 -72.750000 109.000000
-54.500000 -72.750000 109.000000
-27.250000 -72.750000 109.000000
-54.500000 -48.500000 109.000000
-81.750000 -48.500000 109.000000
-81.750000 -24.250000 109.000000
0.000000 -72.750000 109.000000
27.250000 -72.750000 109.000000
0.000000 -48.500000 109.000000
54.500000 -72.750000 109.000000
81.750000 -72.750000 109.000000
54.500000 -48.500000 109.000000
27.250000 -48.500000 109.000000
27.250000 -24.250000 109.000000
0.000000 -24.250000 109.000000
0.000000 0.000000 109.000000
-27.250000 0.000000 109.000000
-27.250000 24.250000 109.000000
-54.500000 24.250000 109.000000
-54.500000 48.500000 109.000000
-54.500000 0.000000 109.000000
-81.750000 48.500000 109.000000
-81.750000 72.750000 109.000000
-81.750000 24.250000 109.000000
-81.750000 0.000000 109.000000
-27.250000 -48.500000 109.000000
-27.250000 -24.250000 109.000000
-54.500000 -24.250000 109.000000
81.750000 72.750000 109.000000
54.500000 72.750000 109.000000
27.250000 72.750000 109.000000
54.500000 48.500000 109.000000
81.750000 48.500000 109.000000
81.750000 24.250000 109.000000
0.000000 72.750000 109.000000
-27.250000 72.750000 109.000000
0.000000 48.500000 109.000000
-54.500000 72.750000 109.000000
-27.250000 48.500000 109.000000
0.000000 24.250000 109.000000
27.250000 0.000000 109.000000
54.500000 -24.250000 109.000000
54.500000 0.000000 109.000000
81.750000 -48.500000 109.000000
81.750000 -24.250000 109.000000
81.750000 0.000000 109.000000
27.250000 48.500000 109.000000
27.250000 24.250000 109.000000
54.500000 24.250000 109.000000
