-97.000000 -75.375000 -92.500000
-97.000000 -100.500000 -69.375000
-97.000000 -100.500000 -92.500000
-97.000000 -75.375000 -69.375000
-97.000000 -100.500000 -46.250000
-97.000000 -50.250000 -92.500000
-97.000000 -75.375000 -46.250000
-97.000000 -100.500000 -23.125000
-97.000000 -75.375000 -23.125000
-97.000000 -100.500000 0.000000
-97.000000 -50.250000 -46.250000
-97.000000 -50.250000 -69.375000
-97.000000 -25.125000 -69.375000
-97.000000 -25.125000 -92.500000
-97.000000 0.000000 -92.500000
-97.000000 -75.375000 0.000000
-97.000000 -100.500000 23.125000
-97.000000 -75.375000 23.125000
-97.000000 -100.500000 46.250000
-97.000000 -50.250000 0.000000
-97.000000 -75.375000 46.250000
-97.000000 -100.500000 69.375000
-97.000000 -75.375000 69.375000
-97.000000 -100.500000 92.500000
-97.000000 -50.250000 46.250000
-97.000000 -50.250000 23.125000
-97.000000 -25.125000 23.125000
-97.000000 -25.125000 0.000000
-97.000000 0.000000 0.000000
-97.000000 0.000000 -23.125000
-97.000000 25.125000 -23.125000
-97.000000 25.125000 -46.250000
-97.000000 50.250000 -46.250000
-97.000000 0.000000 -46.250000
-97.000000 50.250000 -69.375000
-97.000000 75.375000 -69.375000
-97.000000 75.375000 -92.500000
-97.000000 100.500000 -92.500000
-97.000000 50.250000 -92.500000
-97.000000 25.125000 -69.375000
-97.000000 25.125000 -92.500000
-97.000000 0.000000 -69.375000
-97.000000 -50.250000 -23.125000
-97.000000 -25.125000 -23.125000
-97.000000 -25.125000 -46.250000
-97.000000 75.375000 92.500000
-97.000000 100.500000 69.375000
-97.000000 100.500000 92.500000
-97.000000 75.375000 69.375000
-97.000000 100.500000 46.250000
-97.000000 50.250000 92.500000
-97.000000 75.375000 46.250000
-97.000000 100.500000 23.125000
-97.000000 75.375000 23.125000
-97.000000 100.500000 0.000000
-97.000000 50.250000 46.250000
-97.000000 50.250000 69.375000
-97.000000 25.125000 69.375000
-97.000000 25.125000 92.500000
-97.000000 0.000000 92.500000
-97.000000 75.375000 0.000000
-97.000000 100.500000 -23.125000
-97.000000 75.375000 -23.125000
-97.000000 100.500000 -46.250000
-97.000000 50.250000 0.000000
-97.000000 75.375000 -46.250000
-97.000000 100.500000 -69.375000
-97.000000 50.250000 -23.125000
-97.000000 25.125000 0.000000
-97.000000 0.000000 23.125000
-97.000000 -25.125000 46.250000
-97.000000 0.000000 46.250000
-97.000000 -50.250000 69.375000
-97.000000 -75.375000 92.500000
-97.000000 -50.250000 92.500000
-97.000000 -25.125000 69.375000
-97.000000 -25.125000 92.500000
-97.000000 0.000000 69.375000
-97.000000 50.250000 23.125000
-97.000000 25.125000 23.125000
-97.000000 25.125000 46.250000
97.000000 -100.500000 -69.375000
97.000000 -75.375000 -92.500000
97.000000 -100.500000 -92.500000
97.000000 -75.375000 -69.375000
97.000000 -50.250000 -92.500000
97.000000 -100.500000 -46.250000
97.000000 -50.250000 -69.375000
97.000000 -25.125000 -92.500000
97.000000 -25.125000 -69.375000
97.000000 0.000000 -92.500000
97.000000 -50.250000 -46.250000
97.000000 -75.375000 -46.250000
97.000000 -75.375000 -23.125000
97.000000 -100.500000 -23.125000
97.000000 -100.500000 0.000000
97.000000 0.000000 -69.375000
97.000000 25.125000 -92.500000
97.000000 25.125000 -69.375000
97.000000 50.250000 -92.500000
97.000000 0.000000 -46.250000
97.000000 50.250000 -69.375000
97.000000 75.375000 -92.500000
97.000000 75.375000 -69.375000
97.000000 100.500000 -92.500000
97.000000 50.250000 -46.250000
97.000000 25.125000 -46.250000
97.000000 25.125000 -23.125000
97.000000 0.000000 -23.125000
97.000000 0.000000 0.000000
97.000000 -25.125000 0.000000
97.000000 -25.125000 23.125000
97.000000 -50.250000 23.125000
97.000000 -50.250000 46.250000
97.000000 -50.250000 0.000000
97.000000 -75.375000 46.250000
97.000000 -75.375000 69.375000
97.000000 -100.500000 69.375000
97.000000 -100.500000 92.500000
97.000000 -100.500000 46.250000
97.000000 -75.375000 23.125000
97.000000 -100.500000 23.125000
97.000000 -75.375000 0.000000
97.000000 -25.125000 -46.250000
97.000000 -25.125000 -23.125000
97.000000 -50.250000 -23.125000
97.000000 100.500000 69.375000
97.000000 75.375000 92.500000
97.000000 100.500000 92.500000
97.000000 75.375000 69.375000
97.000000 50.250000 92.500000
97.000000 100.500000 46.250000
97.000000 50.250000 69.375000
97.000000 25.125000 92.500000
97.000000 25.125000 69.375000
97.000000 0.000000 92.500000
97.000000 50.250000 46.250000
97.000000 75.375000 46.250000
97.000000 75.375000 23.125000
97.000000 100.500000 23.125000
97.000000 100.500000 0.000000
97.000000 0.000000 69.375000
97.000000 -25.125000 92.500000
97.000000 -25.125000 69.375000
97.000000 -50.250000 92.500000
97.000000 0.000000 46.250000
97.000000 -50.250000 69.375000
97.000000 -75.375000 92.500000
97.000000 -25.125000 46.250000
97.000000 0.000000 23.125000
97.000000 25.125000 0.000000
97.000000 50.250000 -23.125000
97.000000 50.250000 0.000000
97.000000 75.375000 -46.250000
97.000000 100.500000 -69.375000
97.000000 100.500000 -46.250000
97.000000 75.375000 -23.125000
97.000000 100.500000 -23.125000
97.000000 75.375000 0.000000
97.000000 25.125000 46.250000
97.000000 25.125000 23.125000
97.000000 50.250000 23.125000
-72.750000 -100.500000 -92.500000
-72.750000 -100.500000 -69.375000
-48.500000 -100.500000 -92.500000
-48.500000 -100.500000 -69.375000
-24.250000 -100.500000 -92.500000
-24.250000 -100.500000 -69.375000
0.000000 -100.500000 -92.500000
-48.500000 -100.500000 -46.250000
-72.750000 -100.500000 -46.250000
-72.750000 -100.500000 -23.125000
0.000000 -100.500000 -69.375000
24.250000 -100.500000 -92.500000
24.250000 -100.500000 -69.375000
48.500000 -100.500000 -92.500000
0.000000 -100.500000 -46.250000
48.500000 -100.500000 -69.375000
72.750000 -100.500000 -92.500000
72.750000 -100.500000 -69.375000
48.500000 -100.500000 -46.250000
24.250000 -100.500000 -46.250000
24.250000 -100.500000 -23.125000
0.000000 -100.500000 -23.125000
0.000000 -100.500000 0.000000
-24.250000 -100.500000 0.000000
-24.250000 -100.500000 23.125000
-48.500000 -100.500000 23.125000
-48.500000 -100.500000 46.250000
-48.500000 -100.500000 0.000000
-72.750000 -100.500000 46.250000
-72.750000 -100.500000 69.375000
-72.750000 -100.500000 23.125000
-72.750000 -100.500000 0.000000
-24.250000 -100.500000 -46.250000
-24.250000 -100.500000 -23.125000
-48.500000 -100.500000 -23.125000
72.750000 -100.500000 92.500000
72.750000 -100.500000 69.375000
48.500000 -100.500000 92.500000
48.500000 -100.500000 69.375000
24.250000 -100.500000 92.500000
24.250000 -100.500000 69.375000
0.000000 -100.500000 92.500000
48.500000 -100.500000 46.250000
72.750000 -100.500000 46.250000
72.750000 -100.500000 23.125000
0.000000 -100.500000 69.375000
-24.250000 -100.500000 92.500000
-24.250000 -100.500000 69.375000
-48.500000 -100.500000 92.500000
0.000000 -100.500000 46.250000
-48.500000 -100.500000 69.375000
-72.750000 -100.500000 92.500000
-24.250000 -100.500000 46.250000
0.000000 -100.500000 23.125000
24.250000 -100.500000 0.000000
48.500000 -100.500000 -23.125000
48.500000 -100.500000 0.000000
72.750000 -100.500000 -46.250000
72.750000 -100.500000 -23.125000
72.750000 -100.500000 0.000000
24.250000 -100.500000 46.250000
24.250000 -100.500000 23.125000
48.500000 -100.500000 23.125000
-72.750000 100.500000 -92.500000
-72.750000 100.500000 -69.375000
-48.500000 100.500000 -92.500000
-72.750000 100.500000 -46.250000
-72.750000 100.500000 -23.125000
-48.500000 100.500000 -46.250000
-48.500000 100.500000 -69.375000
-24.250000 100.500000 -69.375000
-24.250000 100.500000 -92.500000
0.000000 100.500000 -92.500000
-72.750000 100.500000 0.000000
-72.750000 100.500000 23.125000
-48.500000 100.500000 0.000000
-72.750000 100.500000 46.250000
-72.750000 100.500000 69.375000
-48.500000 100.500000 46.250000
-48.500000 100.500000 23.125000
-24.250000 100.500000 23.125000
-24.250000 100.500000 0.000000
0.000000 100.500000 0.000000
0.000000 100.500000 -23.125000
24.250000 100.500000 -23.125000
24.250000 100.500000 -46.250000
48.500000 100.500000 -46.250000
0.000000 100.500000 -46.250000
48.500000 100.500000 -69.375000
72.750000 100.500000 -69.375000
72.750000 100.500000 -92.500000
48.500000 100.500000 -92.500000
24.250000 100.500000 -69.375000
24.250000 100.500000 -92.500000
0.000000 100.500000 -69.375000
-48.500000 100.500000 -23.125000
-24.250000 100.500000 -23.125000
-24.250000 100.500000 -46.250000
72.750000 100.500000 92.500000
72.750000 100.500000 69.375000
48.500000 100.500000 92.500000
72.750000 100.500000 46.250000
72.750000 100.500000 23.125000
48.500000 100.500000 46.250000
48.500000 100.500000 69.375000
24.250000 100.500000 69.375000
24.250000 100.500000 92.500000
0.000000 100.500000 92.500000
72.750000 100.500000 0.000000
72.750000 100.500000 -23.125000
48.500000 100.500000 0.000000
72.750000 100.500000 -46.250000
48.500000 100.500000 -23.125000
24.250000 100.500000 0.000000
0.000000 100.500000 23.125000
-24.250000 100.500000 46.250000
0.000000 100.500000 46.250000
-48.500000 100.500000 69.375000
-72.750000 100.500000 92.500000
-48.500000 100.500000 92.500000
-24.250000 100.500000 69.375000
-24.250000 100.500000 92.500000
0.000000 100.500000 69.375000
48.500000 100.500000 23.125000
24.250000 100.500000 23.125000
24.250000 100.500000 46.250000
-72.750000 -75.375000 -92.500000
-72.750000 -50.250000 -92.500000
-72.750000 -25.125000 -92.500000
-48.500000 -50.250000 -92.500000
-48.500000 -75.375000 -92.500000
-24.250000 -75.375000 -92.500000
-72.750000 0.000000 -92.500000
-72.750000 25.125000 -92.500000
-48.500000 0.000000 -92.500000
-72.750000 50.250000 -92.500000
-72.750000 75.375000 -92.500000
-48.500000 50.250000 -92.500000
-48.500000 25.125000 -92.500000
-24.250000 25.125000 -92.500000
-24.250000 0.000000 -92.500000
0.000000 0.000000 -92.500000
0.000000 -25.125000 -92.500000
24.250000 -25.125000 -92.500000
24.250000 -50.250000 -92.500000
48.500000 -50.250000 -92.500000
0.000000 -50.250000 -92.500000
48.500000 -75.375000 -92.500000
72.750000 -75.375000 -92.500000
24.250000 -75.375000 -92.500000
0.000000 -75.375000 -92.500000
-48.500000 -25.125000 -92.500000
-24.250000 -25.125000 -92.500000
-24.250000 -50.250000 -92.500000
72.750000 75.375000 -92.500000
72.750000 50.250000 -92.500000
72.750000 25.125000 -92.500000
48.500000 50.250000 -92.500000
48.500000 75.375000 -92.500000
24.250000 75.375000 -92.500000
72.750000 0.000000 -92.500000
72.750000 -25.125000 -92.500000
48.500000 0.000000 -92.500000
72.750000 -50.250000 -92.500000
48.500000 -25.125000 -92.500000
24.250000 0.000000 -92.500000
0.000000 25.125000 -92.500000
-24.250000 50.250000 -92.500000
0.000000 50.250000 -92.500000
-48.500000 75.375000 -92.500000
-24.250000 75.375000 -92.500000
0.000000 75.375000 -92.500000
48.500000 25.125000 -92.500000
24.250000 25.125000 -92.500000
24.250000 50.250000 -92.500000
-72.750000 -75.375000 92.500000
-48.500000 -75.375000 92.500000
-24.250000 -75.375000 92.500000
-48.500000 -50.250000 92.500000
-72.750000 -50.250000 92.500000
-72.750000 -25.125000 92.500000
0.000000 -75.375000 92.500000
24.250000 -75.375000 92.500000
0.000000 -50.250000 92.500000
48.500000 -75.375000 92.500000
72.750000 -75.375000 92.500000
48.500000 -50.250000 92.500000
24.250000 -50.250000 92.500000
24.250000 -25.125000 92.500000
0.000000 -25.125000 92.500000
0.000000 0.000000 92.500000
-24.250000 0.000000 92.500000
-24.250000 25.125000 92.500000
-48.500000 25.125000 92.500000
-48.500000 50.250000 92.500000
-48.500000 0.000000 92.500000
-72.750000 50.250000 92.500000
-72.750000 75.375000 92.500000
-72.750000 25.125000 92.500000
-72.750000 0.000000 92.500000
-24.250000 -50.250000 92.500000
-24.250000 -25.125000 92.500000
-48.500000 -25.125000 92.500000
72.750000 75.375000 92.500000
48.500000 75.375000 92.500000
24.250000 75.375000 92.500000
48.500000 50.250000 92.500000
72.750000 50.250000 92.500000
72.750000 25.125000 92.500000
0.000000 75.375000 92.500000
-24.250000 75.375000 92.500000
0.000000 50.250000 92.500000
-48.500000 75.375000 92.500000
-24.250000 50.250000 92.500000
0.000000 25.125000 92.500000
24.250000 0.000000 92.500000
48.500000 -25.125000 92.500000
48.500000 0.000000 92.500000
72.750000 -50.250000 92.500000
72.750000 -25.125000 92.500000
72.750000 0.000000 92.500000
24.250000 50.250000 92.500000
24.250000 25.125000 92.500000
48.500000 25.125000 92.500000
