-104.500000 -80.625000 -108.000000
-104.500000 -107.500000 -81.000000
-104.500000 -107.500000 -108.000000
-104.500000 -80.625000 -81.000000
-104.500000 -107.500000 -54.000000
-104.500000 -53.750000 -108.000000
-104.500000 -80.625000 -54.000000
-104.500000 -107.500000 -27.000000
-104.500000 -80.625000 -27.000000
-104.500000 -107.500000 0.000000
-104.500000 -53.750000 -54.000000
-104.500000 -53.750000 -81.000000
-104.500000 -26.875000 -81.000000
-104.500000 -26.875000 -108.000000
-104.500000 0.000000 -108.000000
-104.500000 -80.625000 0.000000
-104.500000 -107.500000 27.000000
-104.500000 -80.625000 27.000000
-104.500000 -107.500000 54.000000
-104.500000 -53.750000 0.000000
-104.500000 -80.625000 54.000000
-104.500000 -107.500000 81.000000
-104.500000 -80.625000 81.000000
-104.500000 -107.500000 108.000000
-104.500000 -53.750000 54.000000
-104.500000 -53.750000 27.000000
-104.500000 -26.875000 27.000000
-104.500000 -26.875000 0.000000
-104.500000 0.000000 0.000000
-104.500000 0.000000 -27.000000
-104.500000 26.875000 -27.000000
-104.500000 26.875000 -54.000000
-104.500000 53.750000 -54.000000
-104.500000 0.000000 -54.000000
-104.500000 53.750000 -81.000000
-104.500000 80.625000 -81.000000
-104.500000 80.625000 -108.000000
-104.500000 107.500000 -108.000000
-104.500000 53.750000 -108.000000
-104.500000 26.875000 -81.000000
-104.500000 26.875000 -108.000000
-104.500000 0.000000 -81.000000
-104.500000 -53.750000 -27.000000
-104.500000 -26.875000 -27.000000
-104.500000 -26.875000 -54.000000
-104.500000 80.625000 108.000000
-104.500000 107.500000 81.000000
-104.500000 107.500000 108.000000
-104.500000 80.625000 81.000000
-104.500000 107.500000 54.000000
-104.500000 53.750000 108.000000
-104.500000 80.625000 54.000000
-104.500000 107.500000 27.000000
-104.500000 80.625000 27.000000
-104.500000 107.500000 0.000000
-104.500000 53.750000 54.000000
-104.500000 53.750000 81.000000
-104.500000 26.875000 81.000000
-104.500000 26.875000 108.000000
-104.500000 0.000000 108.000000
-104.500000 80.625000 0.000000
-104.500000 107.500000 -27.000000
-104.500000 80.625000 -27.000000
-104.500000 107.500000 -54.000000
-104.500000 53.750000 0.000000
-104.500000 80.625000 -54.000000
-104.500000 107.500000 -81.000000
-104.500000 53.750000 -27.000000
-104.500000 26.875000 0.000000
-104.500000 0.000000 27.000000
-104.500000 -26.875000 54.000000
-104.500000 0.000000 54.000000
-104.500000 -53.750000 81.000000
-104.500000 -80.625000 108.000000
-104.500000 -53.750000 108.000000
-104.500000 -26.875000 81.000000
-104.500000 -26.875000 108.000000
-104.500000 0.000000 81.000000
-104.500000 53.750000 27.000000
-104.500000 26.875000 27.000000
-104.500000 26.875000 54.000000
104.500000 -107.500000 -81.000000
104.500000 -80.625000 -108.000000
104.500000 -107.500000 -108.000000
104.500000 -80.625000 -81.000000
104.500000 -53.750000 -108.000000
104.500000 -107.500000 -54.000000
104.500000 -53.750000 -81.000000
104.500000 -26.875000 -108.000000
104.500000 -26.875000 -81.000000
104.500000 0.000000 -108.000000
104.500000 -53.750000 -54.000000
104.500000 -80.625000 -54.000000
104.500000 -80.625000 -27.000000
104.500000 -107.500000 -27.000000
104.500000 -107.500000 0.000000
104.500000 0.000000 -81.000000
104.500000 26.875000 -108.000000
104.500000 26.875000 -81.000000
104.500000 53.750000 -108.000000
104.500000 0.000000 -54.000000
104.500000 53.750000 -81.000000
104.500000 80.625000 -108.000000
104.500000 80.625000 -81.000000
104.500000 107.500000 -108.000000
104.500000 53.750000 -54.000000
104.500000 26.875000 -54.000000
104.500000 26.875000 -27.000000
104.500000 0.000000 -27.000000
104.500000 0.000000 0.000000
104.500000 -26.875000 0.000000
104.500000 -26.875000 27.000000
104.500000 -53.750000 27.000000
104.500000 -53.750000 54.000000
104.500000 -53.750000 0.000000
104.500000 -80.625000 54.000000
104.500000 -80.625000 81.000000
104.500000 -107.500000 81.000000
104.500000 -107.500000 108.000000
104.500000 -107.500000 54.000000
104.500000 -80.625000 27.000000
104.500000 -107.500000 27.000000
104.500000 -80.625000 0.000000
104.500000 -26.875000 -54.000000
104.500000 -26.875000 -27.000000
104.500000 -53.750000 -27.000000
104.500000 107.500000 81.000000
104.500000 80.625000 108.000000
104.500000 107.500000 108.000000
104.500000 80.625000 81.000000
104.500000 53.750000 108.000000
104.500000 107.500000 54.000000
104.500000 53.750000 81.000000
104.500000 26.875000 108.000000
104.500000 26.875000 81.000000
104.500000 0.000000 108.000000
104.500000 53.750000 54.000000
104.500000 80.625000 54.000000
104.500000 80.625000 27.000000
104.500000 107.500000 27.000000
104.500000 107.500000 0.000000
104.500000 0.000000 81.000000
104.500000 -26.875000 108.000000
104.500000 -26.875000 81.000000
104.500000 -53.750000 108.000000
104.500000 0.000000 54.000000
104.500000 -53.750000 81.000000
104.500000 -80.625000 108.000000
104.500000 -26.875000 54.000000
104.500000 0.000000 27.000000
104.500000 26.875000 0.000000
104.500000 53.750000 -27.000000
104.500000 53.750000 0.000000
104.500000 80.625000 -54.000000
104.500000 107.500000 -81.000000
104.500000 107.500000 -54.000000
104.500000 80.625000 -27.000000
104.500000 107.500000 -27.000000
104.500000 80.625000 0.000000
104.500000 26.875000 54.000000
104.500000 26.875000 27.000000
104.500000 53.750000 27.000000
-78.375000 -107.500000 -108.000000
-78.375000 -107.500000 -81.000000
-52.250000 -107.500000 -108.000000
-52.250000 -107.500000 -81.000000
-26.125000 -107.500000 -108.000000
-26.125000 -107.500000 -81.000000
0.000000 -107.500000 -108.000000
-52.250000 -107.500000 -54.000000
-78.375000 -107.500000 -54.000000
-78.375000 -107.500000 -27.000000
0.000000 -107.500000 -81.000000
26.125000 -107.500000 -108.000000
26.125000 -107.500000 -81.000000
52.250000 -107.500000 -108.000000
0.000000 -107.500000 -54.000000
52.250000 -107.500000 -81.000000
78.375000 -107.500000 -108.000000
78.375000 -107.500000 -81.000000
52.250000 -107.500000 -54.000000
26.125000 -107.500000 -54.000000
26.125000 -107.500000 -27.000000
0.000000 -107.500000 -27.000000
0.000000 -107.500000 0.000000
-26.125000 -107.500000 0.000000
-26.125000 -107.500000 27.000000
-52.250000 -107.500000 27.000000
-52.250000 -107.500000 54.000000
-52.250000 -107.500000 0.000000
-78.375000 -107.500000 54.000000
-78.375000 -107.500000 81.000000
-78.375000 -107.500000 27.000000
-78.375000 -107.500000 0.000000
-26.125000 -107.500000 -54.000000
-26.125000 -107.500000 -27.000000
-52.250000 -107.500000 -27.000000
78.375000 -107.500000 108.000000
78.375000 -107.500000 81.000000
52.250000 -107.500000 108.000000
52.250000 -107.500000 81.000000
26.125000 -107.500000 108.000000
26.125000 -107.500000 81.000000
0.000000 -107.500000 108.000000
52.250000 -107.500000 54.000000
78.375000 -107.500000 54.000000
78.375000 -107.500000 27.000000
0.000000 -107.500000 81.000000
-26.125000 -107.500000 108.000000
-26.125000 -107.500000 81.000000
-52.250000 -107.500000 108.000000
0.000000 -107.500000 54.000000
-52.250000 -107.500000 81.000000
-78.375000 -107.500000 108.000000
-26.125000 -107.500000 54.000000
0.000000 -107.500000 27.000000
26.125000 -107.500000 0.000000
52.250000 -107.500000 -27.000000
52.250000 -107.500000 0.000000
78.375000 -107.500000 -54.000000
78.375000 -107.500000 -27.000000
78.375000 -107.500000 0.000000
26.125000 -107.500000 54.000000
26.125000 -107.500000 27.000000
52.250000 -107.500000 27.000000
-78.375000 107.500000 -108.000000
-78.375000 107.500000 -81.000000
-52.250000 107.500000 -108.000000
-78.375000 107.500000 -54.000000
-78.375000 107.500000 -27.000000
-52.250000 107.500000 -54.000000
-52.250000 107.500000 -81.000000
-26.125000 107.500000 -81.000000
-26.125000 107.500000 -108.000000
0.000000 107.500000 -108.000000
-78.375000 107.500000 0.000000
-78.375000 107.500000 27.000000
-52.250000 107.500000 0.000000
-78.375000 107.500000 54.000000
-78.375000 107.500000 81.000000
-52.250000 107.500000 54.000000
-52.250000 107.500000 27.000000
-26.125000 107.500000 27.000000
-26.125000 107.500000 0.000000
0.000000 107.500000 0.000000
0.000000 107.500000 -27.000000
26.125000 107.500000 -27.000000
26.125000 107.500000 -54.000000
52.250000 107.500000 -54.000000
0.000000 107.500000 -54.000000
52.250000 107.500000 -81.000000
78.375000 107.500000 -81.000000
78.375000 107.500000 -108.000000
52.250000 107.500000 -108.000000
26.125000 107.500000 -81.000000
26.125000 107.500000 -108.000000
0.000000 107.500000 -81.000000
-52.250000 107.500000 -27.000000
-26.125000 107.500000 -27.000000
-26.125000 107.500000 -54.000000
78.375000 107.500000 108.000000
78.375000 107.500000 81.000000
52.250000 107.500000 108.000000
78.375000 107.500000 54.000000
78.375000 107.500000 27.000000
52.250000 107.500000 54.000000
52.250000 107.500000 81.000000
26.125000 107.500000 81.000000
26.125000 107.500000 108.000000
0.000000 107.500000 108.000000
78.375000 107.500000 0.000000
78.375000 107.500000 -27.000000
52.250000 107.500000 0.000000
78.375000 107.500000 -54.000000
52.250000 107.500000 -27.000000
26.125000 107.500000 0.000000
0.000000 107.500000 27.000000
-26.125000 107.500000 54.000000
0.000000 107.500000 54.000000
-52.250000 107.500000 81.000000
-78.375000 107.500000 108.000000
-52.250000 107.500000 108.000000
-26.125000 107.500000 81.000000
-26.125000 107.500000 108.000000
0.000000 107.500000 81.000000
52.250000 107.500000 27.000000
26.125000 107.500000 27.000000
26.125000 107.500000 54.000000
-78.375000 -80.625000 -108.000000
-78.375000 -53.750000 -108.000000
-78.375000 -26.875000 -108.000000
-52.250000 -53.750000 -108.000000
-52.250000 -80.625000 -108.000000
-26.125000 -80.625000 -108.000000
-78.375000 0.000000 -108.000000
-78.375000 26.875000 -108.000000
-52.250000 0.000000 -108.000000
-78.375000 53.750000 -108.000000
-78.375000 80.625000 -108.000000
-52.250000 53.750000 -108.000000
-52.250000 26.875000 -108.000000
-26.125000 26.875000 -108.000000
-26.125000 0.000000 -108.000000
0.000000 0.000000 -108.000000
0.000000 -26.875000 -108.000000
26.125000 -26.875000 -108.000000
26.125000 -53.750000 -108.000000
52.250000 -53.750000 -108.000000
0.000000 -53.750000 -108.000000
52.250000 -80.625000 -108.000000
78.375000 -80.625000 -108.000000
26.125000 -80.625000 -108.000000
0.000000 -80.625000 -108.000000
-52.250000 -26.875000 -108.000000
-26.125000 -26.875000 -108.000000
-26.125000 -53.750000 -108.000000
78.375000 80.625000 -108.000000
78.375000 53.750000 -108.000000
78.375000 26.875000 -108.000000
52.250000 53.750000 -108.000000
52.250000 80.625000 -108.000000
26.125000 80.625000 -108.000000
78.375000 0.000000 -108.000000
78.375000 -26.875000 -108.000000
52.250000 0.000000 -108.000000
78.375000 -53.750000 -108.000000
52.250000 -26.875000 -108.000000
26.125000 0.000000 -108.000000
0.000000 26.875000 -108.000000
-26.125000 53.750000 -108.000000
0.000000 53.750000 -108.000000
-52.250000 80.625000 -108.000000
-26.125000 80.625000 -108.000000
0.000000 80.625000 -108.000000
52.250000 26.875000 -108.000000
26.125000 26.875000 -108.000000
26.125000 53.750000 -108.000000
-78.375000 -80.625000 108.000000
-52.250000 -80.625000 108.000000
-26.125000 -80.625000 108.000000
-52.250000 -53.750000 108.000000
-78.375000 -53.750000 108.000000
-78.375000 -26.875000 108.000000
0.000000 -80.625000 108.000000
26.125000 -80.625000 108.000000
0.000000 -53.750000 108.000000
52.250000 -80.625000 108.000000
78.375000 -80.625000 108.000000
52.250000 -53.750000 108.000000
26.125000 -53.750000 108.000000
26.125000 -26.875000 108.000000
0.000000 -26.875000 108.000000
0.000000 0.000000 108.000000
-26.125000 0.000000 108.000000
-26.125000 26.875000 108.000000
-52.250000 26.875000 108.000000
-52.250000 53.750000 108.000000
-52.250000 0.000000 108.000000
-78.375000 53.750000 108.000000
-78.375000 80.625000 108.000000
-78.375000 26.875000 108.000000
-78.375000 0.000000 108.000000
-26.125000 -53.750000 108.000000
-26.125000 -26.875000 108.000000
-52.250000 -26.875000 108.000000
78.375000 80.625000 108.000000
52.250000 80.625000 108.000000
26.125000 80.625000 108.000000
52.250000 53.750000 108.000000
78.375000 53.750000 108.000000
78.375000 26.875000 108.000000
0.000000 80.625000 108.000000
-26.125000 80.625000 108.000000
0.000000 53.750000 108.000000
-52.250000 80.625000 108.000000
-26.125000 53.750000 108.000000
0.000000 26.875000 108.000000
26.125000 0.000000 108.000000
52.250000 -26.875000 108.000000
52.250000 0.000000 108.000000
78.375000 -53.750000 108.000000
78.375000 -26.875000 108.000000
78.375000 0.000000 108.000000
26.125000 53.750000 108.000000
26.125000 26.875000 108.000000
52.250000 26.875000 108.000000
