0.574458 -0.040675 -0.817523
0.571140 -0.119078 -0.812169
0.524110 -0.078459 -0.848029
0.525731 0.000000 -0.850651
0.662842 0.121193 -0.738886
0.615456 0.159613 -0.771841
0.620240 0.081142 -0.780204
0.571140 0.119078 -0.812169
0.574458 0.040675 -0.817523
0.524110 0.078459 -0.848029
0.519258 0.156434 -0.840178
0.564513 0.197274 -0.801504
0.511205 0.233445 -0.827147
0.667502 -0.040677 -0.743496
0.622292 0.000000 -0.782786
0.667502 0.040677 -0.743496
0.444464 -0.274694 -0.852640
0.442867 -0.342848 -0.828447
0.385906 -0.307659 -0.869725
0.383614 -0.375039 -0.843911
0.386187 -0.238677 -0.891007
0.324864 -0.339209 -0.882837
0.322525 -0.405434 -0.855337
0.262661 -0.368518 -0.891742
0.259892 -0.433889 -0.862668
0.264083 -0.301259 -0.916244
0.325530 -0.201189 -0.923880
0.325929 -0.270627 -0.905832
0.264151 -0.232455 -0.936050
0.262866 -0.162460 -0.951057
0.196412 -0.397351 -0.896401
0.196015 -0.460267 -0.865871
0.131749 -0.422364 -0.896801
0.131200 -0.484442 -0.864929
0.131655 -0.358229 -0.924305
0.065817 -0.445365 -0.892927
0.065758 -0.506298 -0.859848
0.066042 -0.316778 -0.946198
0.065988 -0.381722 -0.921919
0.198580 -0.122729 -0.972370
0.198337 -0.191780 -0.961188
0.133256 -0.151549 -0.979426
0.132792 -0.220117 -0.966393
0.133071 -0.082242 -0.987688
0.066604 -0.179596 -0.981483
0.066567 -0.247326 -0.966643
0.066741 -0.041248 -0.996917
0.066709 -0.110385 -0.991648
0.198387 -0.330607 -0.922682
0.132570 -0.289929 -0.947822
0.199094 -0.261550 -0.944433
0.444464 0.274694 -0.852640
0.385906 0.307659 -0.869725
0.386187 0.238677 -0.891007
0.325929 0.270627 -0.905832
0.325530 0.201189 -0.923880
0.264151 0.232455 -0.936050
0.262866 0.162460 -0.951057
0.264083 0.301259 -0.916244
0.324864 0.339209 -0.882837
0.262661 0.368518 -0.891742
0.198337 0.191780 -0.961188
0.198580 0.122729 -0.972370
0.133256 0.151549 -0.979426
0.133071 0.082242 -0.987688
0.132792 0.220117 -0.966393
0.066709 0.110385 -0.991648
0.066741 0.041248 -0.996917
0.066567 0.247326 -0.966643
0.066604 0.179596 -0.981483
0.196412 0.397351 -0.896401
0.131749 0.422364 -0.896801
0.131655 0.358229 -0.924305
0.065988 0.381722 -0.921919
0.066042 0.316778 -0.946198
0.065817 0.445365 -0.892927
0.199094 0.261550 -0.944433
0.132570 0.289929 -0.947822
0.198387 0.330607 -0.922682
0.454262 -0.198227 -0.868534
0.394136 -0.161006 -0.904839
0.332342 -0.122800 -0.935130
0.399607 -0.082324 -0.912982
0.460882 -0.119755 -0.879345
0.464213 -0.041299 -0.884760
0.265518 -0.081501 -0.960655
0.200368 -0.041251 -0.978852
0.266405 0.000000 -0.963861
0.133523 0.000000 -0.991046
0.265518 0.081501 -0.960655
0.200368 0.041251 -0.978852
0.464213 0.041299 -0.884760
0.460882 0.119755 -0.879345
0.399607 0.082324 -0.912982
0.394136 0.161006 -0.904839
0.332342 0.122800 -0.935130
0.454262 0.198227 -0.868534
0.334140 -0.041302 -0.941618
0.334140 0.041302 -0.941618
0.400968 0.000000 -0.916092
0.859848 0.065758 0.506298
0.884965 0.000000 0.465658
0.892927 0.065817 0.445365
0.915043 0.000000 0.403355
0.864929 0.131200 0.484442
0.921919 0.065988 0.381722
0.940742 0.000000 0.339123
0.946198 0.066042 0.316778
0.961938 0.000000 0.273267
0.924305 0.131655 0.358229
0.865871 0.196015 0.460267
0.896801 0.131749 0.422364
0.896401 0.196412 0.397351
0.862668 0.259892 0.433889
0.966643 0.066567 0.247326
0.978530 0.000000 0.206103
0.981483 0.066604 0.179596
0.990439 0.000000 0.137952
0.966393 0.132792 0.220117
0.991648 0.066709 0.110385
0.997607 0.000000 0.069142
0.996917 0.066741 0.041248
1.000000 0.000000 0.000000
0.987688 0.133071 0.082242
0.961188 0.198337 0.191780
0.979426 0.133256 0.151549
0.972370 0.198580 0.122729
0.951057 0.262866 0.162460
0.855337 0.322525 0.405434
0.891742 0.262661 0.368518
0.882837 0.324864 0.339209
0.916244 0.264083 0.301259
0.843911 0.383614 0.375039
0.905832 0.325929 0.270627
0.936050 0.264151 0.232455
0.923880 0.325530 0.201189
0.891007 0.386187 0.238677
0.828447 0.442867 0.342848
0.869725 0.385906 0.307659
0.852640 0.444464 0.274694
0.809017 0.500000 0.309017
0.947822 0.132570 0.289929
0.944433 0.199094 0.261550
0.922682 0.198387 0.330607
0.996917 0.066741 -0.041248
0.997607 0.000000 -0.069142
0.991648 0.066709 -0.110385
0.990439 0.000000 -0.137952
0.987688 0.133071 -0.082242
0.981483 0.066604 -0.179596
0.978530 0.000000 -0.206103
0.966643 0.066567 -0.247326
0.961938 0.000000 -0.273267
0.966393 0.132792 -0.220117
0.972370 0.198580 -0.122729
0.979426 0.133256 -0.151549
0.961188 0.198337 -0.191780
0.951057 0.262866 -0.162460
0.946198 0.066042 -0.316778
0.940742 0.000000 -0.339123
0.921919 0.065988 -0.381722
0.915043 0.000000 -0.403355
0.924305 0.131655 -0.358229
0.892927 0.065817 -0.445365
0.884965 0.000000 -0.465658
0.896401 0.196412 -0.397351
0.896801 0.131749 -0.422364
0.923880 0.325530 -0.201189
0.936050 0.264151 -0.232455
0.905832 0.325929 -0.270627
0.916244 0.264083 -0.301259
0.891007 0.386187 -0.238677
0.882837 0.324864 -0.339209
0.891742 0.262661 -0.368518
0.852640 0.444464 -0.274694
0.869725 0.385906 -0.307659
0.947822 0.132570 -0.289929
0.922682 0.198387 -0.330607
0.944433 0.199094 -0.261550
0.785715 0.554740 0.273707
0.827147 0.511205 0.233445
0.801504 0.564513 0.197274
0.840178 0.519258 0.156434
0.758652 0.606825 0.237086
0.812169 0.571140 0.119078
0.848029 0.524110 0.078459
0.817523 0.574458 0.040675
0.850651 0.525731 0.000000
0.780204 0.620240 0.081142
0.727958 0.656006 0.199331
0.771841 0.615456 0.159613
0.738886 0.662842 0.121193
0.693780 0.702046 0.160622
0.817523 0.574458 -0.040675
0.848029 0.524110 -0.078459
0.812169 0.571140 -0.119078
0.840178 0.519258 -0.156434
0.780204 0.620240 -0.081142
0.801504 0.564513 -0.197274
0.827147 0.511205 -0.233445
0.738886 0.662842 -0.121193
0.771841 0.615456 -0.159613
0.656282 0.744727 0.121144
0.700622 0.708969 0.080573
0.660884 0.749387 0.040642
0.702907 0.711282 0.000000
0.615642 0.783843 0.081086
0.660884 0.749387 -0.040642
0.700622 0.708969 -0.080573
0.572056 0.819207 0.040640
0.617676 0.786433 0.000000
0.782786 0.622292 0.000000
0.743496 0.667502 -0.040677
0.743496 0.667502 0.040677
0.991046 0.133523 0.000000
0.978852 0.200368 -0.041251
0.960655 0.265518 -0.081501
0.963861 0.266405 0.000000
0.978852 0.200368 0.041251
0.960655 0.265518 0.081501
0.935130 0.332342 -0.122800
0.904839 0.394136 -0.161006
0.912982 0.399607 -0.082324
0.868534 0.454262 -0.198227
0.884760 0.464213 -0.041299
0.879345 0.460882 -0.119755
0.935130 0.332342 0.122800
0.904839 0.394136 0.161006
0.912982 0.399607 0.082324
0.879345 0.460882 0.119755
0.884760 0.464213 0.041299
0.868534 0.454262 0.198227
0.941618 0.334140 -0.041302
0.916092 0.400968 0.000000
0.941618 0.334140 0.041302
-0.819207 0.040640 0.572056
-0.819207 -0.040640 0.572056
-0.786433 0.000000 0.617676
-0.783843 -0.081086 0.615642
-0.783843 0.081086 0.615642
-0.749387 -0.040642 0.660884
-0.744727 -0.121144 0.656282
-0.708969 -0.080573 0.700622
-0.702046 -0.160622 0.693780
-0.711282 0.000000 0.702907
-0.744727 0.121144 0.656282
-0.749387 0.040642 0.660884
-0.708969 0.080573 0.700622
-0.702046 0.160622 0.693780
-0.662842 -0.121193 0.738886
-0.656006 -0.199331 0.727958
-0.615456 -0.159613 0.771841
-0.606825 -0.237086 0.758652
-0.620240 -0.081142 0.780204
-0.564513 -0.197274 0.801504
-0.554740 -0.273707 0.785715
-0.511205 -0.233445 0.827147
-0.500000 -0.309017 0.809017
-0.519258 -0.156434 0.840178
-0.574458 -0.040675 0.817523
-0.571140 -0.119078 0.812169
-0.524110 -0.078459 0.848029
-0.525731 0.000000 0.850651
-0.656006 0.199331 0.727958
-0.662842 0.121193 0.738886
-0.615456 0.159613 0.771841
-0.620240 0.081142 0.780204
-0.606825 0.237086 0.758652
-0.571140 0.119078 0.812169
-0.574458 0.040675 0.817523
-0.524110 0.078459 0.848029
-0.519258 0.156434 0.840178
-0.554740 0.273707 0.785715
-0.564513 0.197274 0.801504
-0.511205 0.233445 0.827147
-0.500000 0.309017 0.809017
-0.667502 -0.040677 0.743496
-0.622292 0.000000 0.782786
-0.667502 0.040677 0.743496
-0.444464 -0.274694 0.852640
-0.442867 -0.342848 0.828447
-0.385906 -0.307659 0.869725
-0.383614 -0.375039 0.843911
-0.386187 -0.238677 0.891007
-0.324864 -0.339209 0.882837
-0.322525 -0.405434 0.855337
-0.262661 -0.368518 0.891742
-0.259892 -0.433889 0.862668
-0.264083 -0.301259 0.916244
-0.325530 -0.201189 0.923880
-0.325929 -0.270627 0.905832
-0.264151 -0.232455 0.936050
-0.262866 -0.162460 0.951057
-0.196412 -0.397351 0.896401
-0.196015 -0.460267 0.865871
-0.131749 -0.422364 0.896801
-0.131200 -0.484442 0.864929
-0.131655 -0.358229 0.924305
-0.065817 -0.445365 0.892927
-0.065758 -0.506298 0.859848
-0.066042 -0.316778 0.946198
-0.065988 -0.381722 0.921919
-0.198580 -0.122729 0.972370
-0.198337 -0.191780 0.961188
-0.133256 -0.151549 0.979426
-0.132792 -0.220117 0.966393
-0.133071 -0.082242 0.987688
-0.066604 -0.179596 0.981483
-0.066567 -0.247326 0.966643
-0.066741 -0.041248 0.996917
-0.066709 -0.110385 0.991648
-0.198387 -0.330607 0.922682
-0.132570 -0.289929 0.947822
-0.199094 -0.261550 0.944433
-0.442867 0.342848 0.828447
-0.444464 0.274694 0.852640
-0.385906 0.307659 0.869725
-0.386187 0.238677 0.891007
-0.383614 0.375039 0.843911
-0.325929 0.270627 0.905832
-0.325530 0.201189 0.923880
-0.264151 0.232455 0.936050
-0.262866 0.162460 0.951057
-0.264083 0.301259 0.916244
-0.322525 0.405434 0.855337
-0.324864 0.339209 0.882837
-0.262661 0.368518 0.891742
-0.259892 0.433889 0.862668
-0.198337 0.191780 0.961188
-0.198580 0.122729 0.972370
-0.133256 0.151549 0.979426
-0.133071 0.082242 0.987688
-0.132792 0.220117 0.966393
-0.066709 0.110385 0.991648
-0.066741 0.041248 0.996917
-0.066567 0.247326 0.966643
-0.066604 0.179596 0.981483
-0.196015 0.460267 0.865871
-0.196412 0.397351 0.896401
-0.131749 0.422364 0.896801
-0.131655 0.358229 0.924305
-0.131200 0.484442 0.864929
-0.065988 0.381722 0.921919
-0.066042 0.316778 0.946198
-0.065758 0.506298 0.859848
-0.065817 0.445365 0.892927
-0.199094 0.261550 0.944433
-0.132570 0.289929 0.947822
-0.198387 0.330607 0.922682
-0.454262 -0.198227 0.868534
-0.394136 -0.161006 0.904839
-0.332342 -0.122800 0.935130
-0.399607 -0.082324 0.912982
-0.460882 -0.119755 0.879345
-0.464213 -0.041299 0.884760
-0.265518 -0.081501 0.960655
-0.200368 -0.041251 0.978852
-0.266405 0.000000 0.963861
-0.133523 0.000000 0.991046
-0.265518 0.081501 0.960655
-0.200368 0.041251 0.978852
-0.464213 0.041299 0.884760
-0.460882 0.119755 0.879345
-0.399607 0.082324 0.912982
-0.394136 0.161006 0.904839
-0.332342 0.122800 0.935130
-0.454262 0.198227 0.868534
-0.334140 -0.041302 0.941618
-0.334140 0.041302 0.941618
-0.400968 0.000000 0.916092
-0.506298 -0.859848 0.065758
-0.465658 -0.884965 0.000000
-0.445365 -0.892927 0.065817
-0.403355 -0.915043 0.000000
-0.484442 -0.864929 0.131200
-0.381722 -0.921919 0.065988
-0.339123 -0.940742 0.000000
-0.316778 -0.946198 0.066042
-0.273267 -0.961938 0.000000
-0.358229 -0.924305 0.131655
-0.460267 -0.865871 0.196015
-0.422364 -0.896801 0.131749
-0.397351 -0.896401 0.196412
-0.433889 -0.862668 0.259892
-0.247326 -0.966643 0.066567
-0.206103 -0.978530 0.000000
-0.179596 -0.981483 0.066604
-0.137952 -0.990439 0.000000
-0.220117 -0.966393 0.132792
-0.110385 -0.991648 0.066709
-0.069142 -0.997607 0.000000
-0.041248 -0.996917 0.066741
0.000000 -1.000000 0.000000
-0.082242 -0.987688 0.133071
-0.191780 -0.961188 0.198337
-0.151549 -0.979426 0.133256
-0.122729 -0.972370 0.198580
-0.162460 -0.951057 0.262866
-0.405434 -0.855337 0.322525
-0.368518 -0.891742 0.262661
-0.339209 -0.882837 0.324864
-0.301259 -0.916244 0.264083
-0.375039 -0.843911 0.383614
-0.270627 -0.905832 0.325929
-0.232455 -0.936050 0.264151
-0.201189 -0.923880 0.325530
-0.238677 -0.891007 0.386187
-0.342848 -0.828447 0.442867
-0.307659 -0.869725 0.385906
-0.274694 -0.852640 0.444464
-0.309017 -0.809017 0.500000
-0.289929 -0.947822 0.132570
-0.261550 -0.944433 0.199094
-0.330607 -0.922682 0.198387
0.041248 -0.996917 0.066741
0.069142 -0.997607 0.000000
0.110385 -0.991648 0.066709
0.137952 -0.990439 0.000000
0.082242 -0.987688 0.133071
0.179596 -0.981483 0.066604
0.206103 -0.978530 0.000000
0.247326 -0.966643 0.066567
0.273267 -0.961938 0.000000
0.220117 -0.966393 0.132792
0.122729 -0.972370 0.198580
0.151549 -0.979426 0.133256
0.191780 -0.961188 0.198337
0.162460 -0.951057 0.262866
0.316778 -0.946198 0.066042
0.339123 -0.940742 0.000000
0.381722 -0.921919 0.065988
0.403355 -0.915043 0.000000
0.358229 -0.924305 0.131655
0.445365 -0.892927 0.065817
0.465658 -0.884965 0.000000
0.506298 -0.859848 0.065758
0.525731 -0.850651 0.000000
0.484442 -0.864929 0.131200
0.397351 -0.896401 0.196412
0.422364 -0.896801 0.131749
0.460267 -0.865871 0.196015
0.433889 -0.862668 0.259892
0.201189 -0.923880 0.325530
0.232455 -0.936050 0.264151
0.270627 -0.905832 0.325929
0.301259 -0.916244 0.264083
0.238677 -0.891007 0.386187
0.339209 -0.882837 0.324864
0.368518 -0.891742 0.262661
0.405434 -0.855337 0.322525
0.375039 -0.843911 0.383614
0.274694 -0.852640 0.444464
0.307659 -0.869725 0.385906
0.342848 -0.828447 0.442867
0.309017 -0.809017 0.500000
0.289929 -0.947822 0.132570
0.330607 -0.922682 0.198387
0.261550 -0.944433 0.199094
-0.273707 -0.785715 0.554740
-0.233445 -0.827147 0.511205
-0.197274 -0.801504 0.564513
-0.156434 -0.840178 0.519258
-0.237086 -0.758652 0.606825
-0.119078 -0.812169 0.571140
-0.078459 -0.848029 0.524110
-0.040675 -0.817523 0.574458
0.000000 -0.850651 0.525731
-0.081142 -0.780204 0.620240
-0.199331 -0.727958 0.656006
-0.159613 -0.771841 0.615456
-0.121193 -0.738886 0.662842
-0.160622 -0.693780 0.702046
0.040675 -0.817523 0.574458
0.078459 -0.848029 0.524110
0.119078 -0.812169 0.571140
0.156434 -0.840178 0.519258
0.081142 -0.780204 0.620240
0.197274 -0.801504 0.564513
0.233445 -0.827147 0.511205
0.273707 -0.785715 0.554740
0.237086 -0.758652 0.606825
0.121193 -0.738886 0.662842
0.159613 -0.771841 0.615456
0.199331 -0.727958 0.656006
0.160622 -0.693780 0.702046
-0.121144 -0.656282 0.744727
-0.080573 -0.700622 0.708969
-0.040642 -0.660884 0.749387
0.000000 -0.702907 0.711282
-0.081086 -0.615642 0.783843
0.040642 -0.660884 0.749387
0.080573 -0.700622 0.708969
0.121144 -0.656282 0.744727
0.081086 -0.615642 0.783843
-0.040640 -0.572056 0.819207
0.000000 -0.617676 0.786433
0.040640 -0.572056 0.819207
0.000000 -0.782786 0.622292
0.040677 -0.743496 0.667502
-0.040677 -0.743496 0.667502
0.000000 -0.991046 0.133523
0.041251 -0.978852 0.200368
0.081501 -0.960655 0.265518
0.000000 -0.963861 0.266405
-0.041251 -0.978852 0.200368
-0.081501 -0.960655 0.265518
0.122800 -0.935130 0.332342
0.161006 -0.904839 0.394136
0.082324 -0.912982 0.399607
0.198227 -0.868534 0.454262
0.041299 -0.884760 0.464213
0.119755 -0.879345 0.460882
-0.122800 -0.935130 0.332342
-0.161006 -0.904839 0.394136
-0.082324 -0.912982 0.399607
-0.119755 -0.879345 0.460882
-0.041299 -0.884760 0.464213
-0.198227 -0.868534 0.454262
0.041302 -0.941618 0.334140
0.000000 -0.916092 0.400968
-0.041302 -0.941618 0.334140
0.000000 0.617676 -0.786433
-0.040642 0.660884 -0.749387
-0.080573 0.700622 -0.708969
0.000000 0.702907 -0.711282
0.040642 0.660884 -0.749387
0.080573 0.700622 -0.708969
-0.121193 0.738886 -0.662842
-0.159613 0.771841 -0.615456
-0.081142 0.780204 -0.620240
-0.197274 0.801504 -0.564513
-0.233445 0.827147 -0.511205
-0.156434 0.840178 -0.519258
-0.040675 0.817523 -0.574458
-0.119078 0.812169 -0.571140
-0.078459 0.848029 -0.524110
0.000000 0.850651 -0.525731
0.121193 0.738886 -0.662842
0.159613 0.771841 -0.615456
0.081142 0.780204 -0.620240
0.119078 0.812169 -0.571140
0.040675 0.817523 -0.574458
0.078459 0.848029 -0.524110
0.156434 0.840178 -0.519258
0.197274 0.801504 -0.564513
0.233445 0.827147 -0.511205
-0.040677 0.743496 -0.667502
0.000000 0.782786 -0.622292
0.040677 0.743496 -0.667502
-0.274694 0.852640 -0.444464
-0.307659 0.869725 -0.385906
-0.238677 0.891007 -0.386187
-0.339209 0.882837 -0.324864
-0.368518 0.891742 -0.262661
-0.301259 0.916244 -0.264083
-0.201189 0.923880 -0.325530
-0.270627 0.905832 -0.325929
-0.232455 0.936050 -0.264151
-0.162460 0.951057 -0.262866
-0.397351 0.896401 -0.196412
-0.422364 0.896801 -0.131749
-0.358229 0.924305 -0.131655
-0.445365 0.892927 -0.065817
-0.465658 0.884965 0.000000
-0.403355 0.915043 0.000000
-0.316778 0.946198 -0.066042
-0.381722 0.921919 -0.065988
-0.339123 0.940742 0.000000
-0.273267 0.961938 0.000000
-0.122729 0.972370 -0.198580
-0.191780 0.961188 -0.198337
-0.151549 0.979426 -0.133256
-0.220117 0.966393 -0.132792
-0.082242 0.987688 -0.133071
-0.179596 0.981483 -0.066604
-0.247326 0.966643 -0.066567
-0.206103 0.978530 0.000000
-0.137952 0.990439 0.000000
-0.041248 0.996917 -0.066741
-0.110385 0.991648 -0.066709
-0.069142 0.997607 0.000000
0.000000 1.000000 0.000000
-0.330607 0.922682 -0.198387
-0.289929 0.947822 -0.132570
-0.261550 0.944433 -0.199094
0.274694 0.852640 -0.444464
0.307659 0.869725 -0.385906
0.238677 0.891007 -0.386187
0.270627 0.905832 -0.325929
0.201189 0.923880 -0.325530
0.232455 0.936050 -0.264151
0.162460 0.951057 -0.262866
0.301259 0.916244 -0.264083
0.339209 0.882837 -0.324864
0.368518 0.891742 -0.262661
0.191780 0.961188 -0.198337
0.122729 0.972370 -0.198580
0.151549 0.979426 -0.133256
0.082242 0.987688 -0.133071
0.220117 0.966393 -0.132792
0.110385 0.991648 -0.066709
0.041248 0.996917 -0.066741
0.069142 0.997607 0.000000
0.137952 0.990439 0.000000
0.247326 0.966643 -0.066567
0.179596 0.981483 -0.066604
0.206103 0.978530 0.000000
0.273267 0.961938 0.000000
0.397351 0.896401 -0.196412
0.422364 0.896801 -0.131749
0.358229 0.924305 -0.131655
0.381722 0.921919 -0.065988
0.316778 0.946198 -0.066042
0.339123 0.940742 0.000000
0.403355 0.915043 0.000000
0.445365 0.892927 -0.065817
0.465658 0.884965 0.000000
0.261550 0.944433 -0.199094
0.289929 0.947822 -0.132570
0.330607 0.922682 -0.198387
-0.198227 0.868534 -0.454262
-0.161006 0.904839 -0.394136
-0.122800 0.935130 -0.332342
-0.082324 0.912982 -0.399607
-0.119755 0.879345 -0.460882
-0.041299 0.884760 -0.464213
-0.081501 0.960655 -0.265518
-0.041251 0.978852 -0.200368
0.000000 0.963861 -0.266405
0.000000 0.991046 -0.133523
0.081501 0.960655 -0.265518
0.041251 0.978852 -0.200368
0.041299 0.884760 -0.464213
0.119755 0.879345 -0.460882
0.082324 0.912982 -0.399607
0.161006 0.904839 -0.394136
0.122800 0.935130 -0.332342
0.198227 0.868534 -0.454262
-0.041302 0.941618 -0.334140
0.041302 0.941618 -0.334140
0.000000 0.916092 -0.400968
0.506298 0.859848 0.065758
0.445365 0.892927 0.065817
0.484442 0.864929 0.131200
0.381722 0.921919 0.065988
0.316778 0.946198 0.066042
0.358229 0.924305 0.131655
0.460267 0.865871 0.196015
0.422364 0.896801 0.131749
0.397351 0.896401 0.196412
0.433889 0.862668 0.259892
0.247326 0.966643 0.066567
0.179596 0.981483 0.066604
0.220117 0.966393 0.132792
0.110385 0.991648 0.066709
0.041248 0.996917 0.066741
0.082242 0.987688 0.133071
0.191780 0.961188 0.198337
0.151549 0.979426 0.133256
0.122729 0.972370 0.198580
0.162460 0.951057 0.262866
0.405434 0.855337 0.322525
0.368518 0.891742 0.262661
0.339209 0.882837 0.324864
0.301259 0.916244 0.264083
0.375039 0.843911 0.383614
0.270627 0.905832 0.325929
0.232455 0.936050 0.264151
0.201189 0.923880 0.325530
0.238677 0.891007 0.386187
0.342848 0.828447 0.442867
0.307659 0.869725 0.385906
0.274694 0.852640 0.444464
0.309017 0.809017 0.500000
0.289929 0.947822 0.132570
0.261550 0.944433 0.199094
0.330607 0.922682 0.198387
-0.041248 0.996917 0.066741
-0.110385 0.991648 0.066709
-0.082242 0.987688 0.133071
-0.179596 0.981483 0.066604
-0.247326 0.966643 0.066567
-0.220117 0.966393 0.132792
-0.122729 0.972370 0.198580
-0.151549 0.979426 0.133256
-0.191780 0.961188 0.198337
-0.162460 0.951057 0.262866
-0.316778 0.946198 0.066042
-0.381722 0.921919 0.065988
-0.358229 0.924305 0.131655
-0.445365 0.892927 0.065817
-0.506298 0.859848 0.065758
-0.484442 0.864929 0.131200
-0.397351 0.896401 0.196412
-0.422364 0.896801 0.131749
-0.460267 0.865871 0.196015
-0.433889 0.862668 0.259892
-0.201189 0.923880 0.325530
-0.232455 0.936050 0.264151
-0.270627 0.905832 0.325929
-0.301259 0.916244 0.264083
-0.238677 0.891007 0.386187
-0.339209 0.882837 0.324864
-0.368518 0.891742 0.262661
-0.405434 0.855337 0.322525
-0.375039 0.843911 0.383614
-0.274694 0.852640 0.444464
-0.307659 0.869725 0.385906
-0.342848 0.828447 0.442867
-0.309017 0.809017 0.500000
-0.289929 0.947822 0.132570
-0.330607 0.922682 0.198387
-0.261550 0.944433 0.199094
0.273707 0.785715 0.554740
0.233445 0.827147 0.511205
0.197274 0.801504 0.564513
0.156434 0.840178 0.519258
0.237086 0.758652 0.606825
0.119078 0.812169 0.571140
0.078459 0.848029 0.524110
0.040675 0.817523 0.574458
0.000000 0.850651 0.525731
0.081142 0.780204 0.620240
0.199331 0.727958 0.656006
0.159613 0.771841 0.615456
0.121193 0.738886 0.662842
0.160622 0.693780 0.702046
-0.040675 0.817523 0.574458
-0.078459 0.848029 0.524110
-0.119078 0.812169 0.571140
-0.156434 0.840178 0.519258
-0.081142 0.780204 0.620240
-0.197274 0.801504 0.564513
-0.233445 0.827147 0.511205
-0.273707 0.785715 0.554740
-0.237086 0.758652 0.606825
-0.121193 0.738886 0.662842
-0.159613 0.771841 0.615456
-0.199331 0.727958 0.656006
-0.160622 0.693780 0.702046
0.121144 0.656282 0.744727
0.080573 0.700622 0.708969
0.040642 0.660884 0.749387
0.000000 0.702907 0.711282
0.081086 0.615642 0.783843
-0.040642 0.660884 0.749387
-0.080573 0.700622 0.708969
-0.121144 0.656282 0.744727
-0.081086 0.615642 0.783843
0.040640 0.572056 0.819207
0.000000 0.617676 0.786433
-0.040640 0.572056 0.819207
0.000000 0.782786 0.622292
-0.040677 0.743496 0.667502
0.040677 0.743496 0.667502
0.000000 0.991046 0.133523
-0.041251 0.978852 0.200368
-0.081501 0.960655 0.265518
0.000000 0.963861 0.266405
0.041251 0.978852 0.200368
0.081501 0.960655 0.265518
-0.122800 0.935130 0.332342
-0.161006 0.904839 0.394136
-0.082324 0.912982 0.399607
-0.198227 0.868534 0.454262
-0.041299 0.884760 0.464213
-0.119755 0.879345 0.460882
0.122800 0.935130 0.332342
0.161006 0.904839 0.394136
0.082324 0.912982 0.399607
0.119755 0.879345 0.460882
0.041299 0.884760 0.464213
0.198227 0.868534 0.454262
-0.041302 0.941618 0.334140
0.000000 0.916092 0.400968
0.041302 0.941618 0.334140
0.040640 -0.572056 -0.819207
0.106494 -0.551859 -0.827110
0.081086 -0.615642 -0.783843
0.172532 -0.529135 -0.830812
0.237229 -0.504209 -0.830359
0.213023 -0.571252 -0.792649
0.121144 -0.656282 -0.744727
0.147414 -0.594895 -0.790170
0.187432 -0.634579 -0.749786
0.160622 -0.693780 -0.702046
0.303801 -0.476226 -0.825175
0.366027 -0.446977 -0.816233
0.346153 -0.516122 -0.783452
0.427135 -0.415597 -0.803016
0.485712 -0.382683 -0.785899
0.468430 -0.453990 -0.757935
0.386730 -0.553372 -0.737712
0.408286 -0.486240 -0.772575
0.448259 -0.522499 -0.725299
0.425325 -0.587785 -0.688191
0.199331 -0.727958 -0.656006
0.228900 -0.672319 -0.703983
0.267381 -0.705236 -0.656620
0.296005 -0.647412 -0.702310
0.237086 -0.758652 -0.606825
0.334692 -0.678913 -0.653497
0.361592 -0.619186 -0.697037
0.399769 -0.649448 -0.646840
0.371748 -0.707107 -0.601501
0.273707 -0.785715 -0.554740
0.305212 -0.734794 -0.605741
0.341435 -0.760406 -0.552454
0.309017 -0.809017 -0.500000
0.280319 -0.545109 -0.790112
0.322141 -0.583691 -0.745338
0.255180 -0.610926 -0.749435
0.552454 -0.341435 -0.760406
0.605741 -0.305212 -0.734794
0.601501 -0.371748 -0.707107
0.656620 -0.267381 -0.705236
0.703983 -0.228900 -0.672319
0.702310 -0.296005 -0.647412
0.646840 -0.399769 -0.649448
0.653497 -0.334692 -0.678913
0.697037 -0.361592 -0.619186
0.688191 -0.425325 -0.587785
0.749786 -0.187432 -0.634579
0.790170 -0.147414 -0.594895
0.792649 -0.213023 -0.571252
0.827110 -0.106494 -0.551859
0.859848 -0.065758 -0.506298
0.864929 -0.131200 -0.484442
0.830359 -0.237229 -0.504209
0.830812 -0.172532 -0.529135
0.865871 -0.196015 -0.460267
0.862668 -0.259892 -0.433889
0.725299 -0.448259 -0.522499
0.737712 -0.386730 -0.553372
0.772575 -0.408286 -0.486240
0.783452 -0.346153 -0.516122
0.757935 -0.468430 -0.453990
0.816233 -0.366027 -0.446977
0.825175 -0.303801 -0.476226
0.855337 -0.322525 -0.405434
0.843911 -0.383614 -0.375039
0.785899 -0.485712 -0.382683
0.803016 -0.427135 -0.415597
0.828447 -0.442867 -0.342848
0.809017 -0.500000 -0.309017
0.749435 -0.255180 -0.610926
0.790112 -0.280319 -0.545109
0.745338 -0.322141 -0.583691
0.342848 -0.828447 -0.442867
0.382683 -0.785899 -0.485712
0.415597 -0.803016 -0.427135
0.453990 -0.757935 -0.468430
0.375039 -0.843911 -0.383614
0.486240 -0.772575 -0.408286
0.522499 -0.725299 -0.448259
0.553372 -0.737712 -0.386730
0.587785 -0.688191 -0.425325
0.516122 -0.783452 -0.346153
0.405434 -0.855337 -0.322525
0.446977 -0.816233 -0.366027
0.476226 -0.825175 -0.303801
0.433889 -0.862668 -0.259892
0.619186 -0.697037 -0.361592
0.649448 -0.646840 -0.399769
0.678913 -0.653497 -0.334692
0.707107 -0.601501 -0.371748
0.647412 -0.702310 -0.296005
0.734794 -0.605741 -0.305212
0.760406 -0.552454 -0.341435
0.785715 -0.554740 -0.273707
0.758652 -0.606825 -0.237086
0.672319 -0.703983 -0.228900
0.705236 -0.656620 -0.267381
0.727958 -0.656006 -0.199331
0.693780 -0.702046 -0.160622
0.460267 -0.865871 -0.196015
0.504209 -0.830359 -0.237229
0.529135 -0.830812 -0.172532
0.571252 -0.792649 -0.213023
0.484442 -0.864929 -0.131200
0.594895 -0.790170 -0.147414
0.634579 -0.749786 -0.187432
0.656282 -0.744727 -0.121144
0.615642 -0.783843 -0.081086
0.506298 -0.859848 -0.065758
0.551859 -0.827110 -0.106494
0.572056 -0.819207 -0.040640
0.583691 -0.745338 -0.322141
0.610926 -0.749435 -0.255180
0.545109 -0.790112 -0.280319
0.536784 -0.414273 -0.735011
0.584716 -0.443957 -0.678977
0.628313 -0.470917 -0.619242
0.564254 -0.513375 -0.646578
0.517970 -0.485208 -0.704471
0.496441 -0.552418 -0.669612
0.669612 -0.496441 -0.552418
0.704471 -0.517970 -0.485208
0.646578 -0.564254 -0.513375
0.735011 -0.536784 -0.414273
0.619242 -0.628313 -0.470917
0.678977 -0.584716 -0.443957
0.470917 -0.619242 -0.628313
0.443957 -0.678977 -0.584716
0.513375 -0.646578 -0.564254
0.485208 -0.704471 -0.517970
0.552418 -0.669612 -0.496441
0.414273 -0.735011 -0.536784
0.607478 -0.540650 -0.581952
0.581952 -0.607478 -0.540650
0.540650 -0.581952 -0.607478
-0.506298 -0.859848 -0.065758
-0.551859 -0.827110 -0.106494
-0.484442 -0.864929 -0.131200
-0.594895 -0.790170 -0.147414
-0.634579 -0.749786 -0.187432
-0.571252 -0.792649 -0.213023
-0.460267 -0.865871 -0.196015
-0.529135 -0.830812 -0.172532
-0.504209 -0.830359 -0.237229
-0.433889 -0.862668 -0.259892
-0.672319 -0.703983 -0.228900
-0.705236 -0.656620 -0.267381
-0.647412 -0.702310 -0.296005
-0.734794 -0.605741 -0.305212
-0.760406 -0.552454 -0.341435
-0.707107 -0.601501 -0.371748
-0.619186 -0.697037 -0.361592
-0.678913 -0.653497 -0.334692
-0.649448 -0.646840 -0.399769
-0.587785 -0.688191 -0.425325
-0.405434 -0.855337 -0.322525
-0.476226 -0.825175 -0.303801
-0.446977 -0.816233 -0.366027
-0.516122 -0.783452 -0.346153
-0.375039 -0.843911 -0.383614
-0.486240 -0.772575 -0.408286
-0.553372 -0.737712 -0.386730
-0.522499 -0.725299 -0.448259
-0.453990 -0.757935 -0.468430
-0.342848 -0.828447 -0.442867
-0.415597 -0.803016 -0.427135
-0.382683 -0.785899 -0.485712
-0.309017 -0.809017 -0.500000
-0.610926 -0.749435 -0.255180
-0.583691 -0.745338 -0.322141
-0.545109 -0.790112 -0.280319
-0.785899 -0.485712 -0.382683
-0.803016 -0.427135 -0.415597
-0.757935 -0.468430 -0.453990
-0.816233 -0.366027 -0.446977
-0.825175 -0.303801 -0.476226
-0.783452 -0.346153 -0.516122
-0.725299 -0.448259 -0.522499
-0.772575 -0.408286 -0.486240
-0.737712 -0.386730 -0.553372
-0.688191 -0.425325 -0.587785
-0.830359 -0.237229 -0.504209
-0.830812 -0.172532 -0.529135
-0.792649 -0.213023 -0.571252
-0.827110 -0.106494 -0.551859
-0.749786 -0.187432 -0.634579
-0.790170 -0.147414 -0.594895
-0.646840 -0.399769 -0.649448
-0.697037 -0.361592 -0.619186
-0.653497 -0.334692 -0.678913
-0.702310 -0.296005 -0.647412
-0.601501 -0.371748 -0.707107
-0.656620 -0.267381 -0.705236
-0.703983 -0.228900 -0.672319
-0.552454 -0.341435 -0.760406
-0.605741 -0.305212 -0.734794
-0.790112 -0.280319 -0.545109
-0.749435 -0.255180 -0.610926
-0.745338 -0.322141 -0.583691
-0.273707 -0.785715 -0.554740
-0.341435 -0.760406 -0.552454
-0.305212 -0.734794 -0.605741
-0.371748 -0.707107 -0.601501
-0.237086 -0.758652 -0.606825
-0.334692 -0.678913 -0.653497
-0.399769 -0.649448 -0.646840
-0.361592 -0.619186 -0.697037
-0.425325 -0.587785 -0.688191
-0.296005 -0.647412 -0.702310
-0.199331 -0.727958 -0.656006
-0.267381 -0.705236 -0.656620
-0.228900 -0.672319 -0.703983
-0.160622 -0.693780 -0.702046
-0.386730 -0.553372 -0.737712
-0.448259 -0.522499 -0.725299
-0.408286 -0.486240 -0.772575
-0.468430 -0.453990 -0.757935
-0.346153 -0.516122 -0.783452
-0.427135 -0.415597 -0.803016
-0.485712 -0.382683 -0.785899
-0.303801 -0.476226 -0.825175
-0.366027 -0.446977 -0.816233
-0.121144 -0.656282 -0.744727
-0.187432 -0.634579 -0.749786
-0.147414 -0.594895 -0.790170
-0.213023 -0.571252 -0.792649
-0.081086 -0.615642 -0.783843
-0.172532 -0.529135 -0.830812
-0.237229 -0.504209 -0.830359
-0.040640 -0.572056 -0.819207
-0.106494 -0.551859 -0.827110
-0.322141 -0.583691 -0.745338
-0.280319 -0.545109 -0.790112
-0.255180 -0.610926 -0.749435
-0.735011 -0.536784 -0.414273
-0.704471 -0.517970 -0.485208
-0.669612 -0.496441 -0.552418
-0.646578 -0.564254 -0.513375
-0.678977 -0.584716 -0.443957
-0.619242 -0.628313 -0.470917
-0.628313 -0.470917 -0.619242
-0.584716 -0.443957 -0.678977
-0.564254 -0.513375 -0.646578
-0.536784 -0.414273 -0.735011
-0.496441 -0.552418 -0.669612
-0.517970 -0.485208 -0.704471
-0.552418 -0.669612 -0.496441
-0.485208 -0.704471 -0.517970
-0.513375 -0.646578 -0.564254
-0.443957 -0.678977 -0.584716
-0.470917 -0.619242 -0.628313
-0.414273 -0.735011 -0.536784
-0.607478 -0.540650 -0.581952
-0.540650 -0.581952 -0.607478
-0.581952 -0.607478 -0.540650
0.827110 0.106494 0.551859
0.830812 0.172532 0.529135
0.830359 0.237229 0.504209
0.792649 0.213023 0.571252
0.790170 0.147414 0.594895
0.749786 0.187432 0.634579
0.825175 0.303801 0.476226
0.816233 0.366027 0.446977
0.783452 0.346153 0.516122
0.803016 0.427135 0.415597
0.785899 0.485712 0.382683
0.757935 0.468430 0.453990
0.737712 0.386730 0.553372
0.772575 0.408286 0.486240
0.725299 0.448259 0.522499
0.688191 0.425325 0.587785
0.703983 0.228900 0.672319
0.656620 0.267381 0.705236
0.702310 0.296005 0.647412
0.653497 0.334692 0.678913
0.697037 0.361592 0.619186
0.646840 0.399769 0.649448
0.601501 0.371748 0.707107
0.605741 0.305212 0.734794
0.552454 0.341435 0.760406
0.790112 0.280319 0.545109
0.745338 0.322141 0.583691
0.749435 0.255180 0.610926
0.760406 0.552454 0.341435
0.734794 0.605741 0.305212
0.707107 0.601501 0.371748
0.705236 0.656620 0.267381
0.672319 0.703983 0.228900
0.647412 0.702310 0.296005
0.649448 0.646840 0.399769
0.678913 0.653497 0.334692
0.619186 0.697037 0.361592
0.587785 0.688191 0.425325
0.634579 0.749786 0.187432
0.594895 0.790170 0.147414
0.571252 0.792649 0.213023
0.551859 0.827110 0.106494
0.504209 0.830359 0.237229
0.529135 0.830812 0.172532
0.522499 0.725299 0.448259
0.553372 0.737712 0.386730
0.486240 0.772575 0.408286
0.516122 0.783452 0.346153
0.453990 0.757935 0.468430
0.446977 0.816233 0.366027
0.476226 0.825175 0.303801
0.382683 0.785899 0.485712
0.415597 0.803016 0.427135
0.610926 0.749435 0.255180
0.545109 0.790112 0.280319
0.583691 0.745338 0.322141
0.485712 0.382683 0.785899
0.427135 0.415597 0.803016
0.468430 0.453990 0.757935
0.408286 0.486240 0.772575
0.448259 0.522499 0.725299
0.386730 0.553372 0.737712
0.425325 0.587785 0.688191
0.346153 0.516122 0.783452
0.366027 0.446977 0.816233
0.303801 0.476226 0.825175
0.361592 0.619186 0.697037
0.399769 0.649448 0.646840
0.334692 0.678913 0.653497
0.371748 0.707107 0.601501
0.296005 0.647412 0.702310
0.305212 0.734794 0.605741
0.341435 0.760406 0.552454
0.228900 0.672319 0.703983
0.267381 0.705236 0.656620
0.237229 0.504209 0.830359
0.172532 0.529135 0.830812
0.213023 0.571252 0.792649
0.147414 0.594895 0.790170
0.187432 0.634579 0.749786
0.106494 0.551859 0.827110
0.322141 0.583691 0.745338
0.255180 0.610926 0.749435
0.280319 0.545109 0.790112
0.735011 0.536784 0.414273
0.678977 0.584716 0.443957
0.619242 0.628313 0.470917
0.646578 0.564254 0.513375
0.704471 0.517970 0.485208
0.669612 0.496441 0.552418
0.552418 0.669612 0.496441
0.485208 0.704471 0.517970
0.513375 0.646578 0.564254
0.414273 0.735011 0.536784
0.470917 0.619242 0.628313
0.443957 0.678977 0.584716
0.628313 0.470917 0.619242
0.584716 0.443957 0.678977
0.564254 0.513375 0.646578
0.517970 0.485208 0.704471
0.496441 0.552418 0.669612
0.536784 0.414273 0.735011
0.581952 0.607478 0.540650
0.540650 0.581952 0.607478
0.607478 0.540650 0.581952
0.572056 -0.819207 0.040640
0.551859 -0.827110 0.106494
0.615642 -0.783843 0.081086
0.594895 -0.790170 0.147414
0.656282 -0.744727 0.121144
0.634579 -0.749786 0.187432
0.693780 -0.702046 0.160622
0.571252 -0.792649 0.213023
0.529135 -0.830812 0.172532
0.504209 -0.830359 0.237229
0.672319 -0.703983 0.228900
0.727958 -0.656006 0.199331
0.705236 -0.656620 0.267381
0.758652 -0.606825 0.237086
0.647412 -0.702310 0.296005
0.734794 -0.605741 0.305212
0.785715 -0.554740 0.273707
0.760406 -0.552454 0.341435
0.809017 -0.500000 0.309017
0.707107 -0.601501 0.371748
0.619186 -0.697037 0.361592
0.678913 -0.653497 0.334692
0.649448 -0.646840 0.399769
0.587785 -0.688191 0.425325
0.476226 -0.825175 0.303801
0.446977 -0.816233 0.366027
0.516122 -0.783452 0.346153
0.486240 -0.772575 0.408286
0.553372 -0.737712 0.386730
0.522499 -0.725299 0.448259
0.453990 -0.757935 0.468430
0.415597 -0.803016 0.427135
0.382683 -0.785899 0.485712
0.610926 -0.749435 0.255180
0.583691 -0.745338 0.322141
0.545109 -0.790112 0.280319
0.785899 -0.485712 0.382683
0.828447 -0.442867 0.342848
0.803016 -0.427135 0.415597
0.843911 -0.383614 0.375039
0.757935 -0.468430 0.453990
0.816233 -0.366027 0.446977
0.855337 -0.322525 0.405434
0.825175 -0.303801 0.476226
0.862668 -0.259892 0.433889
0.783452 -0.346153 0.516122
0.725299 -0.448259 0.522499
0.772575 -0.408286 0.486240
0.737712 -0.386730 0.553372
0.688191 -0.425325 0.587785
0.830359 -0.237229 0.504209
0.865871 -0.196015 0.460267
0.830812 -0.172532 0.529135
0.864929 -0.131200 0.484442
0.792649 -0.213023 0.571252
0.827110 -0.106494 0.551859
0.859848 -0.065758 0.506298
0.749786 -0.187432 0.634579
0.790170 -0.147414 0.594895
0.646840 -0.399769 0.649448
0.697037 -0.361592 0.619186
0.653497 -0.334692 0.678913
0.702310 -0.296005 0.647412
0.601501 -0.371748 0.707107
0.656620 -0.267381 0.705236
0.703983 -0.228900 0.672319
0.552454 -0.341435 0.760406
0.605741 -0.305212 0.734794
0.790112 -0.280319 0.545109
0.749435 -0.255180 0.610926
0.745338 -0.322141 0.583691
0.341435 -0.760406 0.552454
0.305212 -0.734794 0.605741
0.371748 -0.707107 0.601501
0.334692 -0.678913 0.653497
0.399769 -0.649448 0.646840
0.361592 -0.619186 0.697037
0.425325 -0.587785 0.688191
0.296005 -0.647412 0.702310
0.267381 -0.705236 0.656620
0.228900 -0.672319 0.703983
0.386730 -0.553372 0.737712
0.448259 -0.522499 0.725299
0.408286 -0.486240 0.772575
0.468430 -0.453990 0.757935
0.346153 -0.516122 0.783452
0.427135 -0.415597 0.803016
0.485712 -0.382683 0.785899
0.303801 -0.476226 0.825175
0.366027 -0.446977 0.816233
0.187432 -0.634579 0.749786
0.147414 -0.594895 0.790170
0.213023 -0.571252 0.792649
0.172532 -0.529135 0.830812
0.237229 -0.504209 0.830359
0.106494 -0.551859 0.827110
0.322141 -0.583691 0.745338
0.280319 -0.545109 0.790112
0.255180 -0.610926 0.749435
0.735011 -0.536784 0.414273
0.704471 -0.517970 0.485208
0.669612 -0.496441 0.552418
0.646578 -0.564254 0.513375
0.678977 -0.584716 0.443957
0.619242 -0.628313 0.470917
0.628313 -0.470917 0.619242
0.584716 -0.443957 0.678977
0.564254 -0.513375 0.646578
0.536784 -0.414273 0.735011
0.496441 -0.552418 0.669612
0.517970 -0.485208 0.704471
0.552418 -0.669612 0.496441
0.485208 -0.704471 0.517970
0.513375 -0.646578 0.564254
0.443957 -0.678977 0.584716
0.470917 -0.619242 0.628313
0.414273 -0.735011 0.536784
0.607478 -0.540650 0.581952
0.540650 -0.581952 0.607478
0.581952 -0.607478 0.540650
-0.859848 0.065758 0.506298
-0.892927 0.065817 0.445365
-0.864929 0.131200 0.484442
-0.896801 0.131749 0.422364
-0.865871 0.196015 0.460267
-0.896401 0.196412 0.397351
-0.862668 0.259892 0.433889
-0.924305 0.131655 0.358229
-0.921919 0.065988 0.381722
-0.946198 0.066042 0.316778
-0.891742 0.262661 0.368518
-0.855337 0.322525 0.405434
-0.882837 0.324864 0.339209
-0.843911 0.383614 0.375039
-0.916244 0.264083 0.301259
-0.869725 0.385906 0.307659
-0.828447 0.442867 0.342848
-0.852640 0.444464 0.274694
-0.809017 0.500000 0.309017
-0.891007 0.386187 0.238677
-0.936050 0.264151 0.232455
-0.905832 0.325929 0.270627
-0.923880 0.325530 0.201189
-0.951057 0.262866 0.162460
-0.966643 0.066567 0.247326
-0.981483 0.066604 0.179596
-0.966393 0.132792 0.220117
-0.979426 0.133256 0.151549
-0.961188 0.198337 0.191780
-0.972370 0.198580 0.122729
-0.987688 0.133071 0.082242
-0.991648 0.066709 0.110385
-0.996917 0.066741 0.041248
-0.922682 0.198387 0.330607
-0.944433 0.199094 0.261550
-0.947822 0.132570 0.289929
-0.827147 0.511205 0.233445
-0.785715 0.554740 0.273707
-0.801504 0.564513 0.197274
-0.758652 0.606825 0.237086
-0.840178 0.519258 0.156434
-0.771841 0.615456 0.159613
-0.727958 0.656006 0.199331
-0.738886 0.662842 0.121193
-0.693780 0.702046 0.160622
-0.780204 0.620240 0.081142
-0.848029 0.524110 0.078459
-0.812169 0.571140 0.119078
-0.817523 0.574458 0.040675
-0.850651 0.525731 0.000000
-0.700622 0.708969 0.080573
-0.656282 0.744727 0.121144
-0.660884 0.749387 0.040642
-0.615642 0.783843 0.081086
-0.702907 0.711282 0.000000
-0.617676 0.786433 0.000000
-0.572056 0.819207 0.040640
-0.700622 0.708969 -0.080573
-0.660884 0.749387 -0.040642
-0.848029 0.524110 -0.078459
-0.817523 0.574458 -0.040675
-0.812169 0.571140 -0.119078
-0.780204 0.620240 -0.081142
-0.840178 0.519258 -0.156434
-0.771841 0.615456 -0.159613
-0.738886 0.662842 -0.121193
-0.827147 0.511205 -0.233445
-0.801504 0.564513 -0.197274
-0.743496 0.667502 0.040677
-0.743496 0.667502 -0.040677
-0.782786 0.622292 0.000000
-0.996917 0.066741 -0.041248
-0.991648 0.066709 -0.110385
-0.987688 0.133071 -0.082242
-0.979426 0.133256 -0.151549
-0.972370 0.198580 -0.122729
-0.961188 0.198337 -0.191780
-0.951057 0.262866 -0.162460
-0.966393 0.132792 -0.220117
-0.981483 0.066604 -0.179596
-0.966643 0.066567 -0.247326
-0.936050 0.264151 -0.232455
-0.923880 0.325530 -0.201189
-0.905832 0.325929 -0.270627
-0.891007 0.386187 -0.238677
-0.916244 0.264083 -0.301259
-0.869725 0.385906 -0.307659
-0.852640 0.444464 -0.274694
-0.891742 0.262661 -0.368518
-0.882837 0.324864 -0.339209
-0.946198 0.066042 -0.316778
-0.921919 0.065988 -0.381722
-0.924305 0.131655 -0.358229
-0.896801 0.131749 -0.422364
-0.896401 0.196412 -0.397351
-0.892927 0.065817 -0.445365
-0.944433 0.199094 -0.261550
-0.922682 0.198387 -0.330607
-0.947822 0.132570 -0.289929
-0.868534 0.454262 0.198227
-0.879345 0.460882 0.119755
-0.884760 0.464213 0.041299
-0.912982 0.399607 0.082324
-0.904839 0.394136 0.161006
-0.935130 0.332342 0.122800
-0.884760 0.464213 -0.041299
-0.879345 0.460882 -0.119755
-0.912982 0.399607 -0.082324
-0.868534 0.454262 -0.198227
-0.935130 0.332342 -0.122800
-0.904839 0.394136 -0.161006
-0.960655 0.265518 0.081501
-0.978852 0.200368 0.041251
-0.963861 0.266405 0.000000
-0.978852 0.200368 -0.041251
-0.960655 0.265518 -0.081501
-0.991046 0.133523 0.000000
-0.916092 0.400968 0.000000
-0.941618 0.334140 -0.041302
-0.941618 0.334140 0.041302
-0.827110 0.106494 0.551859
-0.790170 0.147414 0.594895
-0.749786 0.187432 0.634579
-0.792649 0.213023 0.571252
-0.830812 0.172532 0.529135
-0.830359 0.237229 0.504209
-0.703983 0.228900 0.672319
-0.656620 0.267381 0.705236
-0.702310 0.296005 0.647412
-0.605741 0.305212 0.734794
-0.552454 0.341435 0.760406
-0.601501 0.371748 0.707107
-0.697037 0.361592 0.619186
-0.653497 0.334692 0.678913
-0.646840 0.399769 0.649448
-0.688191 0.425325 0.587785
-0.825175 0.303801 0.476226
-0.816233 0.366027 0.446977
-0.783452 0.346153 0.516122
-0.772575 0.408286 0.486240
-0.737712 0.386730 0.553372
-0.725299 0.448259 0.522499
-0.757935 0.468430 0.453990
-0.803016 0.427135 0.415597
-0.785899 0.485712 0.382683
-0.749435 0.255180 0.610926
-0.745338 0.322141 0.583691
-0.790112 0.280319 0.545109
-0.485712 0.382683 0.785899
-0.427135 0.415597 0.803016
-0.468430 0.453990 0.757935
-0.366027 0.446977 0.816233
-0.303801 0.476226 0.825175
-0.346153 0.516122 0.783452
-0.448259 0.522499 0.725299
-0.408286 0.486240 0.772575
-0.386730 0.553372 0.737712
-0.425325 0.587785 0.688191
-0.237229 0.504209 0.830359
-0.172532 0.529135 0.830812
-0.213023 0.571252 0.792649
-0.106494 0.551859 0.827110
-0.187432 0.634579 0.749786
-0.147414 0.594895 0.790170
-0.399769 0.649448 0.646840
-0.361592 0.619186 0.697037
-0.334692 0.678913 0.653497
-0.296005 0.647412 0.702310
-0.371748 0.707107 0.601501
-0.267381 0.705236 0.656620
-0.228900 0.672319 0.703983
-0.341435 0.760406 0.552454
-0.305212 0.734794 0.605741
-0.280319 0.545109 0.790112
-0.255180 0.610926 0.749435
-0.322141 0.583691 0.745338
-0.760406 0.552454 0.341435
-0.734794 0.605741 0.305212
-0.707107 0.601501 0.371748
-0.678913 0.653497 0.334692
-0.649448 0.646840 0.399769
-0.619186 0.697037 0.361592
-0.587785 0.688191 0.425325
-0.647412 0.702310 0.296005
-0.705236 0.656620 0.267381
-0.672319 0.703983 0.228900
-0.553372 0.737712 0.386730
-0.522499 0.725299 0.448259
-0.486240 0.772575 0.408286
-0.453990 0.757935 0.468430
-0.516122 0.783452 0.346153
-0.415597 0.803016 0.427135
-0.382683 0.785899 0.485712
-0.476226 0.825175 0.303801
-0.446977 0.816233 0.366027
-0.634579 0.749786 0.187432
-0.594895 0.790170 0.147414
-0.571252 0.792649 0.213023
-0.529135 0.830812 0.172532
-0.504209 0.830359 0.237229
-0.551859 0.827110 0.106494
-0.583691 0.745338 0.322141
-0.545109 0.790112 0.280319
-0.610926 0.749435 0.255180
-0.536784 0.414273 0.735011
-0.517970 0.485208 0.704471
-0.496441 0.552418 0.669612
-0.564254 0.513375 0.646578
-0.584716 0.443957 0.678977
-0.628313 0.470917 0.619242
-0.470917 0.619242 0.628313
-0.443957 0.678977 0.584716
-0.513375 0.646578 0.564254
-0.414273 0.735011 0.536784
-0.552418 0.669612 0.496441
-0.485208 0.704471 0.517970
-0.669612 0.496441 0.552418
-0.704471 0.517970 0.485208
-0.646578 0.564254 0.513375
-0.678977 0.584716 0.443957
-0.619242 0.628313 0.470917
-0.735011 0.536784 0.414273
-0.540650 0.581952 0.607478
-0.581952 0.607478 0.540650
-0.607478 0.540650 0.581952
0.000000 -0.617676 -0.786433
0.040642 -0.660884 -0.749387
0.080573 -0.700622 -0.708969
0.000000 -0.702907 -0.711282
-0.040642 -0.660884 -0.749387
-0.080573 -0.700622 -0.708969
0.121193 -0.738886 -0.662842
0.159613 -0.771841 -0.615456
0.081142 -0.780204 -0.620240
0.197274 -0.801504 -0.564513
0.233445 -0.827147 -0.511205
0.156434 -0.840178 -0.519258
0.040675 -0.817523 -0.574458
0.119078 -0.812169 -0.571140
0.078459 -0.848029 -0.524110
0.000000 -0.850651 -0.525731
-0.121193 -0.738886 -0.662842
-0.159613 -0.771841 -0.615456
-0.081142 -0.780204 -0.620240
-0.119078 -0.812169 -0.571140
-0.040675 -0.817523 -0.574458
-0.078459 -0.848029 -0.524110
-0.156434 -0.840178 -0.519258
-0.197274 -0.801504 -0.564513
-0.233445 -0.827147 -0.511205
0.040677 -0.743496 -0.667502
0.000000 -0.782786 -0.622292
-0.040677 -0.743496 -0.667502
0.274694 -0.852640 -0.444464
0.307659 -0.869725 -0.385906
0.238677 -0.891007 -0.386187
0.339209 -0.882837 -0.324864
0.368518 -0.891742 -0.262661
0.301259 -0.916244 -0.264083
0.201189 -0.923880 -0.325530
0.270627 -0.905832 -0.325929
0.232455 -0.936050 -0.264151
0.162460 -0.951057 -0.262866
0.397351 -0.896401 -0.196412
0.422364 -0.896801 -0.131749
0.358229 -0.924305 -0.131655
0.445365 -0.892927 -0.065817
0.316778 -0.946198 -0.066042
0.381722 -0.921919 -0.065988
0.122729 -0.972370 -0.198580
0.191780 -0.961188 -0.198337
0.151549 -0.979426 -0.133256
0.220117 -0.966393 -0.132792
0.082242 -0.987688 -0.133071
0.179596 -0.981483 -0.066604
0.247326 -0.966643 -0.066567
0.041248 -0.996917 -0.066741
0.110385 -0.991648 -0.066709
0.330607 -0.922682 -0.198387
0.289929 -0.947822 -0.132570
0.261550 -0.944433 -0.199094
-0.274694 -0.852640 -0.444464
-0.307659 -0.869725 -0.385906
-0.238677 -0.891007 -0.386187
-0.270627 -0.905832 -0.325929
-0.201189 -0.923880 -0.325530
-0.232455 -0.936050 -0.264151
-0.162460 -0.951057 -0.262866
-0.301259 -0.916244 -0.264083
-0.339209 -0.882837 -0.324864
-0.368518 -0.891742 -0.262661
-0.191780 -0.961188 -0.198337
-0.122729 -0.972370 -0.198580
-0.151549 -0.979426 -0.133256
-0.082242 -0.987688 -0.133071
-0.220117 -0.966393 -0.132792
-0.110385 -0.991648 -0.066709
-0.041248 -0.996917 -0.066741
-0.247326 -0.966643 -0.066567
-0.179596 -0.981483 -0.066604
-0.397351 -0.896401 -0.196412
-0.422364 -0.896801 -0.131749
-0.358229 -0.924305 -0.131655
-0.381722 -0.921919 -0.065988
-0.316778 -0.946198 -0.066042
-0.445365 -0.892927 -0.065817
-0.261550 -0.944433 -0.199094
-0.289929 -0.947822 -0.132570
-0.330607 -0.922682 -0.198387
0.198227 -0.868534 -0.454262
0.161006 -0.904839 -0.394136
0.122800 -0.935130 -0.332342
0.082324 -0.912982 -0.399607
0.119755 -0.879345 -0.460882
0.041299 -0.884760 -0.464213
0.081501 -0.960655 -0.265518
0.041251 -0.978852 -0.200368
0.000000 -0.963861 -0.266405
0.000000 -0.991046 -0.133523
-0.081501 -0.960655 -0.265518
-0.041251 -0.978852 -0.200368
-0.041299 -0.884760 -0.464213
-0.119755 -0.879345 -0.460882
-0.082324 -0.912982 -0.399607
-0.161006 -0.904839 -0.394136
-0.122800 -0.935130 -0.332342
-0.198227 -0.868534 -0.454262
0.041302 -0.941618 -0.334140
-0.041302 -0.941618 -0.334140
0.000000 -0.916092 -0.400968
0.892927 -0.065817 -0.445365
0.921919 -0.065988 -0.381722
0.946198 -0.066042 -0.316778
0.924305 -0.131655 -0.358229
0.896801 -0.131749 -0.422364
0.896401 -0.196412 -0.397351
0.966643 -0.066567 -0.247326
0.981483 -0.066604 -0.179596
0.966393 -0.132792 -0.220117
0.991648 -0.066709 -0.110385
0.996917 -0.066741 -0.041248
0.987688 -0.133071 -0.082242
0.961188 -0.198337 -0.191780
0.979426 -0.133256 -0.151549
0.972370 -0.198580 -0.122729
0.951057 -0.262866 -0.162460
0.891742 -0.262661 -0.368518
0.882837 -0.324864 -0.339209
0.916244 -0.264083 -0.301259
0.905832 -0.325929 -0.270627
0.936050 -0.264151 -0.232455
0.923880 -0.325530 -0.201189
0.891007 -0.386187 -0.238677
0.869725 -0.385906 -0.307659
0.852640 -0.444464 -0.274694
0.947822 -0.132570 -0.289929
0.944433 -0.199094 -0.261550
0.922682 -0.198387 -0.330607
0.996917 -0.066741 0.041248
0.991648 -0.066709 0.110385
0.987688 -0.133071 0.082242
0.981483 -0.066604 0.179596
0.966643 -0.066567 0.247326
0.966393 -0.132792 0.220117
0.972370 -0.198580 0.122729
0.979426 -0.133256 0.151549
0.961188 -0.198337 0.191780
0.951057 -0.262866 0.162460
0.946198 -0.066042 0.316778
0.921919 -0.065988 0.381722
0.924305 -0.131655 0.358229
0.892927 -0.065817 0.445365
0.896401 -0.196412 0.397351
0.896801 -0.131749 0.422364
0.923880 -0.325530 0.201189
0.936050 -0.264151 0.232455
0.905832 -0.325929 0.270627
0.916244 -0.264083 0.301259
0.891007 -0.386187 0.238677
0.882837 -0.324864 0.339209
0.891742 -0.262661 0.368518
0.852640 -0.444464 0.274694
0.869725 -0.385906 0.307659
0.947822 -0.132570 0.289929
0.922682 -0.198387 0.330607
0.944433 -0.199094 0.261550
0.827147 -0.511205 -0.233445
0.801504 -0.564513 -0.197274
0.840178 -0.519258 -0.156434
0.812169 -0.571140 -0.119078
0.848029 -0.524110 -0.078459
0.817523 -0.574458 -0.040675
0.850651 -0.525731 0.000000
0.780204 -0.620240 -0.081142
0.771841 -0.615456 -0.159613
0.738886 -0.662842 -0.121193
0.817523 -0.574458 0.040675
0.848029 -0.524110 0.078459
0.812169 -0.571140 0.119078
0.840178 -0.519258 0.156434
0.780204 -0.620240 0.081142
0.801504 -0.564513 0.197274
0.827147 -0.511205 0.233445
0.738886 -0.662842 0.121193
0.771841 -0.615456 0.159613
0.700622 -0.708969 -0.080573
0.660884 -0.749387 -0.040642
0.702907 -0.711282 0.000000
0.660884 -0.749387 0.040642
0.700622 -0.708969 0.080573
0.617676 -0.786433 0.000000
0.782786 -0.622292 0.000000
0.743496 -0.667502 0.040677
0.743496 -0.667502 -0.040677
0.991046 -0.133523 0.000000
0.978852 -0.200368 0.041251
0.960655 -0.265518 0.081501
0.963861 -0.266405 0.000000
0.978852 -0.200368 -0.041251
0.960655 -0.265518 -0.081501
0.935130 -0.332342 0.122800
0.904839 -0.394136 0.161006
0.912982 -0.399607 0.082324
0.868534 -0.454262 0.198227
0.884760 -0.464213 0.041299
0.879345 -0.460882 0.119755
0.935130 -0.332342 -0.122800
0.904839 -0.394136 -0.161006
0.912982 -0.399607 -0.082324
0.879345 -0.460882 -0.119755
0.884760 -0.464213 -0.041299
0.868534 -0.454262 -0.198227
0.941618 -0.334140 0.041302
0.916092 -0.400968 0.000000
0.941618 -0.334140 -0.041302
-0.106494 -0.551859 0.827110
